# .PCD v0.7 - Point Cloud Data file format
VERSION 0.7
FIELDS x y z intensity
SIZE 4 4 4 4
TYPE F F F F
COUNT 1 1 1 1
WIDTH 1288
HEIGHT 1
VIEWPOINT 0 0 0 1 0 0 0
POINTS 1288
DATA ascii
-0.2426151 47.227703 2.5023355 13
-0.18763413 1.9300684 2.9725688 18.111111
-0.23318283 2.1268511 3.0272415 18.787611
-0.20870855 47.13279 3.0320055 15.897436
-0.19659731 1.8950348 3.3459065 18.75
-0.20692155 2.0938323 3.327872 18.142534
-0.22764164 47.108906 3.4336188 16.616667
-0.21424197 1.7310976 3.8425779 18.294117
-0.1714092 2.0257652 3.8050635 20.5
-0.17856959 10.937537 3.8795316 20.880501
-0.21449329 47.080978 3.7775712 17.768946
-0.21077605 1.6988817 4.1937633 19.029078
-0.2050052 47.064354 4.1790166 17.806595
-0.21011159 1.6955564 4.5547423 19.419355
-0.25732705 45.969849 4.7556572 19
-0.18478395 46.032486 4.662426 17.255749
-0.19497335 47.034145 4.6825671 18.543703
-0.20209666 1.6580454 4.9905491 20.611111
-0.24773507 45.928757 4.8610334 21
-0.21410049 46.079445 4.8259015 21
-0.2086066 46.547626 5.1006966 20.148085
-0.20417131 46.965744 4.9702225 18.885466
-0.18925175 -73.33374 5.5036206 16.133499
-0.16544481 1.5790335 5.3846827 19
-0.24582097 1.6348901 5.5031705 20.607143
-0.20863692 46.691708 5.3871593 20.3414
-0.16717269 46.942829 5.395649 19.115917
-0.30327323 1.5904316 5.8536839 22
-0.17284071 1.6690303 5.7491484 21.142233
-0.39146921 29.301857 5.6166534 19.1355
-0.31593487 46.740456 5.630507 22.04475
-0.25264037 46.946747 5.8066287 19.148052
-0.17019819 -76.755569 6.3298936 16.135
-0.19768344 1.7083387 6.1513858 21.819201
-0.39380261 40.555546 6.2472134 18.1355
-0.18311791 46.615803 6.0549355 20.379499
-0.26744363 46.938816 6.2114134 20.909227
-0.21048865 1.7126279 6.6582508 21.910858
-0.39098752 2.8466249 6.7854004 22.130501
-0.29922107 3.3816381 6.6111193 21.1325
-0.26988536 3.6785319 6.638216 21.1325
-0.26873511 10.655588 6.6009407 22.1325
-0.33298311 25.016945 6.6836944 22.1355
-0.30617914 25.430834 6.7052102 22.1355
-0.234899 26.42017 6.7442083 22.1355
-0.3038573 29.265556 6.4748731 21.1355
-0.33630905 34.41666 6.4607491 19.1355
-0.0062459968 46.797249 6.778626 22.0455
-0.15061507 46.890274 6.5683012 20.692968
-0.24185322 1.6970212 6.9069934 22
-0.10539235 2.7658789 6.91786 22.133499
-0.07995382 3.4323101 6.9331059 22.059999
-0.21181551 3.8809779 7.0104675 22.063
-0.24180825 4.1114316 6.9960527 22.063999
-0.33605346 5.1797528 6.9838996 22.132
-0.35991117 5.3941693 7.0431738 22.068001
-0.19774666 5.7741885 7.0129271 22.099998
-0.1260324 19.778244 7.1090617 21
-0.31581071 46.68713 6.8821893 19.136999
-0.22863078 46.917015 6.9956932 21.309113
-0.37292016 19.785736 7.4926391 22.046499
-0.055124324 28.790564 7.4974337 18.046
-0.26948807 45.321125 7.5038114 22
-0.029795984 46.777473 7.4513073 21.591751
-0.10847253 46.862793 7.397831 21.54575
-0.19913982 19.588573 7.9121161 22
-0.19820935 28.779913 7.9453368 18.046
-0.0095755672 28.801233 7.7871976 19.046
-0.33858788 45.069149 7.6831369 19.0445
-0.27943441 45.286427 7.6255679 21.591499
-0.22066045 46.917473 7.7518692 22.091999
-0.39409944 23.262468 8.0355473 22.046499
-0.049408663 23.946419 8.1135464 21.046
-0.17463514 25.635437 8.1264458 19.046
-0.016381398 26.501686 8.1627331 21.046
-0.044823311 27.531063 8.2471371 19.046
-0.095538266 34.778671 8.2117424 17.046
-0.24736837 40.789379 8.1377106 15.046
-0.23482762 40.83477 8.1400995 16
-0.21700613 40.739441 8.6205807 22.0445
-0.089114539 45.552513 8.6110592 15.046
-0.25060141 46.706314 8.7365294 22.0455
-0.3528589 45.504478 8.9455109 21.59075
-0.28495601 46.597054 9.1370096 22.136999
-0.16461711 -72.845932 11.520031 18.045
-0.1920772 -76.252258 14.802538 19.045
0.34041819 -37.943165 -4.1564898 12.133
0.086328655 -37.034054 -3.8381553 12.133
0.19508676 -36.382965 -3.9746652 10
0.21327427 -32.950531 -3.8733501 12.136
0.20828402 -32.213478 -3.9587061 10
0.069226786 -24.272732 -3.8319111 9
0.22250293 -21.680624 -3.6140354 9
0.16556829 -8.6326294 -3.7659967 10
0.15420374 -20.406107 -3.4173386 9
0.25302333 -16.62956 -3.3144131 8
0.17151351 -36.407368 -3.1423359 12.136
0.35924828 -15.204636 -3.1431751 8
0.1274102 -15.132747 -3.1331928 8
0.025033619 -11.226789 -2.876981 9
0.093751192 -10.690556 -2.9401636 5
0.3027823 -10.302766 -2.8470912 7
0.32789499 -9.2532215 -2.8655224 3
0.25326607 -8.2921658 -2.8440177 2
0.060276724 -36.919022 -2.6204739 12.1345
0.20665455 -36.561504 -2.6782901 13.136
0.36236662 -8.1118803 -2.7549412 2
0.18448025 -7.2086964 -2.7065337 0
0.10556539 -6.4828339 -2.6812482 0
0.17224859 -6.2783523 -2.7377133 3
0.29566154 46.760639 -2.4485371 9
0.17892496 47.095047 -2.4551051 9
0.14305587 -38.205696 -2.3480308 12.135
0.24141565 -36.698078 -2.1643951 12.1335
0.21235779 13.338722 -2.0827034 3.5
0.30002305 14.371772 -2.0825257 3
0.14360359 19.275585 -2.3520813 5
0.34938538 46.69593 -2.3400099 9
0.10427548 47.118919 -2.3644588 9
0.17136727 -46.082428 -1.6523873 15.136
0.21462139 -36.810204 -1.8479607 15.136
0.2146837 3.7820833 -1.9418992 6
0.22415246 4.6442471 -1.9097835 5.6666665
0.16483398 5.8827438 -1.8677704 4
0.1976064 6.7487283 -1.7974179 0
0.21903287 7.0561333 -1.8159727 0
0.20105232 7.3974619 -1.8062589 3
0.17388704 8.178297 -1.811612 1.5
0.11531863 8.4413128 -1.7681427 1
0.18626207 9.3555164 -1.7424819 2.25
0.17219473 10.223211 -1.8028718 2.2
0.21658176 10.577378 -1.6827897 7
0.20291691 11.321385 -1.9667103 2
0.32003129 11.611026 -1.681893 6
0.21868606 12.316574 -1.6871651 7
0.010604895 12.555987 -1.6260446 4
0.18196388 12.969788 -1.6705928 7.5
0.026140844 13.33276 -1.6018165 9
0.18202698 14.978212 -1.6690435 7
0.091017477 13.406916 -1.583742 3
0.25925073 13.817786 -1.5489479 4
0.20406522 14.061018 -1.5436504 6
0.18333612 14.648099 -1.5286504 3
0.20422992 14.896885 -1.5200359 4
0.11129428 15.416633 -1.5073196 7
0.19902268 15.866211 -1.487254 3
0.23310456 16.119205 -1.4924214 3.5
0.1918384 17.039221 -1.4288002 1
0.16681471 17.317371 -1.4749417 5.25
0.2064584 17.796129 -1.4401795 3.8
0.16005768 18.128462 -1.4229671 2.5714285
0.37518185 18.799429 -1.4575436 6
0.22449753 19.005671 -1.3865572 3.6666667
0.22344759 19.408169 -1.4448863 6.6666665
0.15560518 19.754005 -1.3229566 2.5
0.247548 20.239021 -1.2813848 0
0.099699058 20.733326 -1.3030866 0
0.2116017 21.029337 -1.2855004 3.3333333
0.127949 21.410212 -1.2612622 1
0.17199901 21.678907 -1.2934847 4
0.24013445 22.197868 -1.2251159 2
0.30815083 22.649586 -1.2404239 5.5384617
0.22768073 22.945879 -1.2325822 5.3000002
0.23343609 23.272081 -1.222633 4.5
0.19941145 21.899498 -1.1846077 3
0.17513606 22.48921 -1.1725142 5
0.21088828 22.95508 -1.1802622 2.6666667
0.199457 23.458117 -1.14842 1.5714285
0.18126002 24.286879 -1.1191212 2.0833333
0.18578213 24.573639 -1.120288 2.6666667
0.10379449 24.953043 -1.1195034 4
0.16770694 25.364803 -1.088758 3.8
0.19541945 25.888004 -1.0916914 6
0.21558928 26.151678 -1.0600392 3.3333333
0.26899084 26.482567 -1.0225576 1.5
0.22795326 26.924196 -1.0124674 4.125
0.21089578 27.420046 -0.97908485 0.71428573
0.26605245 27.88254 -0.96128744 0
0.2214459 28.166559 -0.94367778 0.40000001
0.18320423 28.660435 -0.88983619 4
0.20861624 29.046694 -0.88011241 3.3333333
0.13501488 29.445213 -0.86367273 5.3333335
0.28189695 29.802259 -0.84365511 5.4444447
0.18121766 30.291382 -0.83000755 2.75
0.23159648 30.66943 -0.84399676 0
0.22085699 30.998945 -0.81056201 2.5
0.23173568 47.164944 -0.81668538 10
0.16493624 47.20665 -0.82329518 10
0.20126349 30.339342 -0.78608453 4
0.15489644 30.637609 -0.7757346 4
0.23050468 31.051529 -0.74908143 4
0.2346606 31.42363 -0.77041918 2
0.22381732 31.68597 -0.74294597 2.75
0.17207724 32.127762 -0.70633763 3.125
0.13443923 32.631092 -0.66469556 2.1666667
0.19526964 33.053699 -0.6768747 2.4285715
0.23522954 33.497818 -0.62947673 0.5
0.23131905 33.686337 -0.6238485 3.3333333
0.23549975 34.224041 -0.57332921 1.3846154
0.1872462 34.597042 -0.54154426 0.85714287
0.28624997 35.046741 -0.52771401 2
0.20789501 35.502552 -0.48435017 1.8333334
0.27524039 35.948303 -0.52302349 4.5
0.028853791 36.545742 -0.52067006 9
0.13935247 36.861984 -0.47184688 7.5
0.2625508 37.647388 -0.42691889 6
0.10513399 38.513931 -0.40522861 6
0.15470985 47.173912 -0.76064473 10
0.20919873 18.669104 -0.34654787 9
0.38415173 38.550964 -0.39931881 6
0.151208 39.380463 -0.36530602 6
0.25345013 40.072197 -0.24751595 7
0.36410066 40.914436 -0.26432213 6
0.027985282 41.279697 -0.24688295 6
0.27381101 46.999924 0.36538962 10
0.17743333 47.28709 0.31126326 10
0.11996563 47.254009 0.81520289 11.227
0.33904457 46.764526 1.4686563 12.137
0.18930548 47.083492 1.4621065 12
0.071008578 47.223404 1.5330807 12
0.17029934 -73.602905 1.8805399 15.1315
0.041547347 47.216438 1.6139355 12
0.13799818 -73.014214 2.1206226 15.134
0.16636953 -2.9718134 2.2726381 17.633875
0.1922203 -2.2297065 2.2374463 18.522625
0.092725523 -1.5276815 2.1352305 18
0.12328552 -0.90468043 2.1565411 18
0.21388093 -0.26829302 2.2137797 16.075167
0.293174 0.13970529 2.1103661 16.366499
0.34737414 1.5196099 2.240561 19.0455
0.217594 1.8667697 2.2537961 16.063448
0.15486021 47.161701 2.2623477 12.665117
0.13957845 47.221325 2.3111184 13
0.16939737 -72.954262 2.7599771 18.136
0.26084563 -72.511406 2.6410718 15.134834
0.18403777 -0.23886578 2.4628477 20.044832
0.22307464 0.726484 2.5190494 21
0.18982446 1.8980215 2.6531188 16.966654
0.15810868 2.1901689 2.6119738 17.097946
0.19683148 47.092503 2.636282 14.119819
0.086128592 47.216534 2.4524415 13
0.18379195 1.8991357 2.9623096 18.553886
0.16783795 2.1268837 3.0430818 18.204525
0.20639269 47.04409 3.0576429 16.145195
0.20963952 1.8694206 3.3652685 18.533333
0.19985601 2.0961735 3.3100464 17.973684
0.19686286 47.021469 3.4229655 17.588236
0.19214797 1.7256711 3.8351626 18.318182
0.15315858 2.0287006 3.7737856 20
0.19875512 10.923196 3.8685513 20.863499
0.18002465 47.022533 3.7506716 17.645502
0.19004507 1.6965197 4.2059865 19.254204
0.18747714 47.004875 4.1745892 18.161068
0.15817213 47.358818 4.1267638 15.135
0.17915082 -73.644753 4.4469228 18.136
0.19624566 1.6894528 4.5197716 19.363636
0.19802737 45.979904 4.6095066 16.022751
0.15793835 46.100372 4.6961451 17.782833
0.21533066 46.955563 4.6240945 18.441133
0.21684864 1.6564491 4.9938855 20.879999
0.16363709 41.281181 5.0564733 16.135
0.058063954 45.929039 4.8562322 21
0.22401282 46.11475 4.8349137 21
0.21025778 46.509956 5.0944662 20.307121
0.17941947 46.946579 4.9102373 19.401281
0.13373341 -73.679237 5.3296795 19.136
0.22510563 1.5606041 5.4479613 19
0.21186173 1.6288569 5.5294747 21.030304
0.024611119 5.8973885 5.5184412 22.047001
0.10244811 35.291161 5.5514035 18.135
0.21011949 46.655689 5.376236 20.664749
0.15721694 46.964291 5.3828564 19.394615
0.30087903 1.5986515 5.852067 22
0.20453973 1.6494237 5.7807341 21.071428
0.20479849 5.8672862 5.6598959 21.063999
0.25930491 10.055113 5.6336884 21.132999
0.22583444 14.422628 5.9189301 22.132999
0.092247166 29.281483 5.6469388 19.135
0.23406945 46.271118 5.8415608 20.07325
0.19057126 46.687351 5.8702888 18.893541
0.1769049 46.915947 5.7727675 20.884031
0.31366274 1.5933148 6.1909051 22
0.1733077 1.6952239 6.2571621 21.777779
0.22189768 10.321745 6.1218534 22.070499
0.3949596 18.606165 6.3497353 22.0455
0.30034047 40.562275 6.2572007 18.135
0.041322514 46.391273 6.0110645 21
0.13069639 46.574371 6.0384889 20.805687
0.14584026 46.909092 6.3076668 20.760626
0.26549551 1.7786404 6.6084743 21.81995
0.34595224 2.1586871 6.5047202 22.049
0.14730436 2.7930143 6.7929826 22.131001
0.14245592 10.69544 6.4046636 22.132999
0.10347376 24.994715 6.6772323 22.135
0.13246475 25.467781 6.717433 22.135
0.20637831 26.510548 6.7745271 22.135
0.061310731 28.373909 6.5360689 21.135
0.099966563 28.802301 6.5602922 21.135
0.19095416 29.22604 6.4720836 21.135
0.24438587 34.499336 6.4844704 19.135
0.32825029 46.769783 6.5010614 21.137501
0.18498065 46.876076 6.5103383 21.4825
0.08627855 1.674013 6.9027715 22
0.39148545 5.0239635 7.1050982 22.070999
0.015276526 6.3511124 7.123107 22.132999
0.09260191 19.758392 7.1047134 21
0.38893309 46.769356 7.0644002 21.136999
0.15769766 46.904381 7.0269623 20.248444
0.20347111 19.725389 7.4755077 22.04575
0.13869892 45.326874 7.5053401 22
0.18703794 46.860065 7.3558884 21.742834
0.23009771 19.549641 7.9022398 22
0.35961583 28.748764 7.9437003 18.0455
0.008294737 34.782028 7.786973 16.046
0.22658333 45.288757 7.652298 21.136499
0.15011869 46.854015 7.811759 21.841377
0.32929534 25.62842 8.1307592 19.0455
0.35825238 40.797977 8.1379251 16
0.028921703 40.814251 8.1381016 16
0.068679251 46.744179 8.2779951 20.54475
0.10447104 46.812103 8.2406626 20.09025
0.23924914 40.735695 8.6218395 22.044001
0.11261918 46.733849 8.5911703 22.04525
0.30800131 -72.108643 8.806962 16.0455
0.11497721 44.803787 8.9540634 21.044001
0.16245821 45.489887 9.0173616 21.772333
0.25262561 46.653358 9.1566219 22.136499
0.45283097 -37.970482 -4.1722264 12.133
0.75063437 -33.008457 -3.8725262 12.1365
0.75999767 -32.162647 -3.9482934 10
0.47016793 -24.267824 -3.8276019 9
0.56415921 -21.740372 -3.6187854 9
0.44545281 -38.077961 -3.4687166 12.1315
0.50658947 -20.496643 -3.4269454 9
0.64778858 -16.594585 -3.3050089 8
0.53288072 -38.076191 -3.1375301 12.134
0.70544326 -15.225646 -3.1429033 8
0.75840563 -11.322413 -2.9561603 5
0.53326774 -10.671211 -2.9317966 5
0.54856032 -10.229836 -2.8339412 5
0.60925406 -9.3989954 -2.8745983 3
0.63730162 -8.3000422 -2.8443027 2
0.57369816 -7.4444442 -2.8061311 0
0.65960962 -9.0348558 -2.7890706 3
0.66090965 -8.1682444 -2.7685041 2
0.64453763 -7.4455776 -2.7397091 0
0.65076268 -7.1893568 -2.7032728 0
0.55065829 -6.478703 -2.6798141 0
0.70650202 -6.3489323 -2.713578 0
0.61321437 46.654724 -2.4338555 9
0.72144508 3.9056883 -2.2938862 10
0.66103429 4.4379225 -2.3140655 10
0.52523738 13.308811 -2.078613 3.5
0.70030344 14.38304 -2.0809939 3
0.47849363 19.247053 -2.3493426 5
0.583022 46.64991 -2.3348417 9
0.64084107 3.7365115 -1.9454249 6
0.56558007 4.4126282 -1.9063522 5
0.60897267 5.8748984 -1.8635476 4
0.64821982 6.6560545 -1.8013861 1
0.62820667 6.9101796 -1.8198271 1
0.45272544 7.3852954 -1.8050585 3
0.52435243 7.8812518 -1.7844853 0
0.57097697 8.0298796 -1.7973731 1.3333334
0.41835675 8.4256907 -1.7659463 1
0.62441921 9.1104193 -1.735211 0
0.49796069 9.3582544 -1.7472774 3.5
0.58577484 10.205852 -1.8233521 3.2777779
0.60305482 10.764831 -1.6777576 7
0.55350101 11.318716 -1.9634609 2
0.60983694 11.623974 -1.6785052 6
0.65493649 12.344419 -1.6808873 7
0.49425614 12.992993 -1.664953 7.5
0.74512368 14.951174 -1.6647582 7
0.56642812 13.41469 -1.5779409 3
0.54125571 13.80087 -1.5508289 4
0.61591339 14.074841 -1.5394545 6
0.53765506 14.653007 -1.5268258 3
0.64529252 14.906802 -1.5153514 4
0.56680661 15.942712 -1.4836227 3
0.6301983 16.107143 -1.4771771 2.5
0.58568746 17.064682 -1.4163312 2
0.60629469 17.380203 -1.4387729 4.1999998
0.61844504 17.789476 -1.458217 5.1999998
0.57385498 18.181108 -1.3844066 0.75
0.57826197 18.757368 -1.4581528 6
0.5624181 19.020357 -1.3587315 2.3333333
0.5839529 19.412827 -1.4055489 6.5294118
0.59269261 19.767044 -1.3352337 3.4000001
0.55123252 20.237228 -1.2876039 0
0.47310221 20.763269 -1.2980828 0
0.59391952 20.981718 -1.2761593 2.909091
0.53037483 21.385628 -1.2784702 2
0.54485595 21.80584 -1.2464072 2
0.59124267 22.195185 -1.2263924 2.6666667
0.60053414 22.639252 -1.2359775 5.1428571
0.6230585 22.990013 -1.2226506 4.1666665
0.70522326 23.245457 -1.2258772 6
0.6675998 21.929379 -1.1905395 2.5
0.71652097 22.475626 -1.163031 6
0.62946463 22.974575 -1.1811289 4
0.60784107 23.432858 -1.1451588 1.8
0.79689443 23.609785 -1.1590861 3
0.62151235 24.277302 -1.1078792 1.625
0.56242335 24.717213 -1.1125147 4
0.58494067 24.932165 -1.1204827 3.7142856
0.5963788 25.335155 -1.0860529 3.5999999
0.62864232 25.966413 -1.1043508 7
0.5251326 26.139723 -1.0559578 2.909091
0.55670238 26.521891 -1.0210018 1
0.60533392 26.966452 -1.0127578 3.75
0.61687165 27.382547 -0.97657537 0.5714286
0.5768891 27.833584 -0.95894504 0
0.57734388 28.126726 -0.9439972 0.16666667
0.61601454 28.533358 -0.89191025 4
0.57014185 28.955252 -0.8885954 2
0.63535094 29.346573 -0.87149662 3.2
0.64661682 29.76972 -0.85092044 5.0999999
0.56901348 30.316164 -0.83054131 2.6666667
0.65747964 30.751762 -0.8384372 0
0.49083826 31.033443 -0.80697197 2.5
0.55609733 47.068356 -0.81688827 10
0.6191932 30.3498 -0.77932578 4
0.5639267 30.660343 -0.77886963 3
0.62993872 31.0546 -0.74516839 4
0.58889675 31.274021 -0.74422765 4
0.64905059 31.715742 -0.7261588 3.1818182
0.54408681 32.10849 -0.69956106 3.4000001
0.49312943 32.576321 -0.68245149 1.7142857
0.5487982 33.082672 -0.67638284 3.125
0.65753222 33.40213 -0.59547728 2.125
0.61382478 33.712166 -0.65641814 1.7777778
0.66018105 34.265759 -0.55701125 1.2857143
0.6015867 34.668171 -0.51559281 0.85714287
0.63403141 35.014763 -0.50488794 2
0.65800875 35.390221 -0.50563341 2.75
0.53676969 35.843948 -0.53148609 3.25
0.67308301 36.017796 -0.5199213 6
0.58487487 36.466057 -0.51173699 9
0.50504786 36.909237 -0.46703777 7.5
0.58129317 37.673225 -0.4202002 6
0.55022007 47.030319 -0.75343716 10
0.63577706 18.502558 -0.35422346 9
0.68757844 19.459497 -0.2860181 9
0.7606352 38.597073 -0.39235789 6
0.44143686 39.408077 -0.357986 6
0.46917662 40.081791 -0.24426323 7
0.59630436 40.903137 -0.24174444 6.5
0.74094564 46.845413 0.31361693 10
0.54252404 47.103882 0.8255564 12.033751
0.61247063 46.747208 1.5190439 12.138623
0.73862743 46.752441 1.6009614 12.145
0.6339922 -3.0478189 2.3428342 19.133751
0.56276822 -2.2482178 2.2438345 18.522999
0.55575508 -1.5442483 2.1415834 18
0.56375396 -0.92199206 2.1620991 18
0.6696803 -0.26896131 2.2451892 16.0905
0.67732084 0.21298639 2.1964865 17.683167
0.70616281 1.5294352 2.2427254 19.046249
0.59688556 1.827997 2.269217 16.131674
0.71653414 2.1032114 2.3816886 16.046
0.50066471 46.730473 2.1255717 12.042728
0.56498367 47.019196 2.2350626 12.36938
0.55508024 -0.24118303 2.4518256 19.567625
0.74200761 0.76705074 2.5177562 21
0.61559987 1.8813322 2.65465 17.043615
0.59657228 2.140162 2.6196361 17.098162
0.60768002 47.023216 2.6413355 13.571603
0.58210993 1.9132745 2.9273412 17.640728
0.60775942 2.1545882 3.0288587 18.852249
0.58152097 46.996506 3.0700526 16.44656
0.58602977 1.8826907 3.3277736 18.714285
0.6185528 2.0756011 3.3285124 18.004061
0.63830173 46.997623 3.3882926 17.524313
0.60314131 1.720168 3.8430312 18.40909
0.59023702 2.0368016 3.812593 20.333334
0.52483106 10.916318 3.8507559 20.380657
0.5970819 46.96183 3.7612188 18.208372
0.58675104 1.6836199 4.1916337 19.186047
0.59539425 46.949684 4.1698647 18.360292
0.62937158 1.6723771 4.5768199 19.575001
0.50905144 45.978218 4.609859 16.022499
0.57487386 46.073902 4.6911025 17.347374
0.59057051 46.90205 4.6220336 18.556396
0.59572899 1.6483402 5.0093331 21
0.58940434 41.163227 5.042479 16
0.60856754 45.93713 4.8555942 20.195459
0.77779466 46.135075 4.9700165 21.039228
0.54837185 46.507843 5.0535078 19.71977
0.64005119 46.87915 4.8970752 19.307032
0.62489712 1.5334017 5.4396687 19
0.6783765 1.6200376 5.520113 21.049999
0.48486671 23.515772 5.3429241 21.134501
0.66453254 27.989708 5.2148209 19.134501
0.73955911 35.091835 5.4991784 18.134501
0.57858413 46.651897 5.4316916 21.248798
0.50809252 46.860832 5.436594 19.214285
0.65977705 1.5913364 5.8553371 22
0.56936771 1.6437937 5.7549119 21.105263
0.78216553 29.276024 5.6795735 19
0.64511317 46.350052 5.9800549 22.039
0.65569854 46.681183 5.8595347 19.279301
0.59842741 46.85083 5.7572179 20.669037
0.45230943 47.256527 5.6913166 16.135
0.64809585 -75.946442 6.3613687 16.135
0.60357296 1.5673039 6.1967592 22
0.54161668 1.6893748 6.2791104 21.673777
0.57667881 46.602215 6.1031775 20.864901
0.54625535 46.847168 6.2936106 21.068186
0.6347723 1.7015017 6.6005216 21.82658
0.49758881 2.1923115 6.5789495 22
0.68725228 2.7708941 6.7972317 22.1315
0.46392044 6.6557803 6.7643309 22.070499
0.66260237 10.654521 6.5100226 22.036409
0.54041058 25.027653 6.6875725 22.134501
0.56748569 25.477848 6.7244592 22.134501
0.67411727 29.161049 6.4651651 21.134501
0.57819653 46.77449 6.5804467 21.774168
0.56406754 46.860374 6.5983644 20.685844
0.65809071 1.6556751 6.8896408 22
0.68273699 3.6983299 7.0152268 22.064499
0.63310874 4.839179 7.0745664 22.091333
0.44363928 5.223989 7.0912461 22.073
0.48223662 6.6317458 6.80792 22.0725
0.667629 19.74584 7.1100469 21
0.65188128 26.636608 6.8165975 22.134501
0.59488881 46.780136 7.0884619 21.114
0.6750201 46.868599 7.0471973 19.758551
0.72267795 40.243652 7.4016533 22.136
0.44220489 44.672874 7.5414824 22.045
0.48551005 45.286915 7.5293722 22.014999
0.56270444 46.298935 7.572372 22.045
0.51705414 46.757767 7.3660016 22.045
0.61760306 46.878845 7.4092746 21.181715
0.50834346 28.689301 7.760664 19.0455
0.64958048 34.676506 7.7703428 16.0455
0.62461776 46.753654 7.6759129 22.136999
0.47078174 26.643227 8.2140312 21.0455
0.5501585 34.757484 8.2140522 17.0455
0.68742537 40.783089 8.1383276 16
0.69746149 40.714531 8.6194811 22.043501
0.72240818 46.714615 8.5880728 22.022251
0.73379606 -72.689407 8.9217758 16.0455
0.79733282 46.705036 9.1774664 22.136
0.41195837 -72.572151 11.487844 18.0455
0.89553702 -45.683216 -4.6035361 12.1335
1.0375375 -45.698166 -3.8821418 12.132
0.86320227 -24.266016 -3.8239088 9
0.91131455 -21.801643 -3.6237988 9
1.0121149 -8.6552324 -3.7620809 10
0.85306257 -20.524307 -3.4280856 9
1.0443013 -16.643059 -3.3106241 8
1.0789806 -45.821114 -2.9842055 12.1355
1.0546522 -15.236194 -3.1411352 8
0.94135058 -11.281741 -2.9466355 5
0.88996089 -10.63076 -2.9207401 5
0.98395652 -10.223055 -2.8279855 5
0.94116801 -9.4323025 -2.8740661 3
0.91844654 -8.2742891 -2.8371885 2
0.93694848 -7.3240566 -2.804563 0
1.0618339 -9.0336294 -2.7859316 3
0.90813267 -8.1704702 -2.7671068 2
0.97927862 -7.443994 -2.7779593 0
0.93308473 -7.1626701 -2.7011607 0
0.97105324 -6.4405112 -2.6738079 0
0.98988444 -6.3251643 -2.7122951 0
0.92369276 46.647964 -2.4225869 9
0.95258141 46.941593 -2.4584801 9
0.95404583 13.1135 -2.0704081 3.5
1.0040252 13.332391 -2.0700254 4
1.1643025 14.250188 -2.0758705 4
1.1420163 19.172718 -2.3438656 5
0.80943209 19.220266 -2.3475168 5
0.81701428 46.647755 -2.3319438 9
0.99046785 46.961571 -2.3457887 9
1.1165801 -75.102737 -1.891644 13.132
0.94770509 -45.992092 -1.6407676 15.1365
1.0194622 3.7322748 -1.9437095 6
0.99189037 4.4243865 -1.9003179 5
0.92025661 5.8684092 -1.8629332 4
1.0101637 6.6128006 -1.8056637 2
1.0351808 6.9144716 -1.8095255 0.66666669
0.95304638 8.0250788 -1.8091736 1
0.97323805 9.1419992 -1.7333493 0
1.0130718 9.5512285 -1.7522173 7
1.0605078 9.9473543 -1.9359241 3
0.93554127 10.270279 -1.7969708 3.5999999
0.95993412 10.78207 -1.6744258 7
1.0622556 11.233347 -1.9686044 3
0.99836069 11.635734 -1.6764029 6
0.97903275 12.964478 -1.6082615 6
1.0212597 14.954051 -1.6608192 7
0.82463849 -72.764175 -1.289945 12.0465
1.0003203 13.441697 -1.5719236 3
0.96434087 13.837807 -1.5435631 4
1.026405 14.106651 -1.5336175 6
1.0678991 14.949163 -1.5061411 4
1.0112294 15.493812 -1.470855 3
1.023284 15.957946 -1.4830017 6
1.0029896 16.118675 -1.4716659 2
1.0100483 16.89337 -1.4113512 2
1.0442696 17.410944 -1.4430182 4.1428571
0.96881384 17.785273 -1.4716263 5.1999998
0.99136561 18.204996 -1.3793458 1
1.044914 18.706217 -1.4528519 6
0.99195856 19.013266 -1.3481971 2.8888888
1.0100651 19.448549 -1.4054306 6.5714288
1.0212414 19.790796 -1.318621 4.1999998
0.98839813 20.269663 -1.2820379 0
0.91763306 20.77092 -1.2947112 0
0.97662133 20.93222 -1.2860715 4.6666665
0.97487682 21.408655 -1.2790421 2.2857144
1.0665851 21.834997 -1.2427822 0
0.92323792 22.179743 -1.2223656 2.5
0.88800395 22.639296 -1.232851 5.1428571
0.96090734 22.921944 -1.2224811 4.3333335
0.92475259 23.270477 -1.2491977 6
1.1054014 -73.016388 -1.0786382 12.0465
0.83034885 -72.762711 -1.0964774 12.0465
1.0572084 21.966875 -1.1977448 2
0.98455065 22.493036 -1.1590222 6
1.0814587 22.984762 -1.1766669 4
1.0208838 23.408529 -1.1576252 2
1.0940275 23.603432 -1.1556754 3
1.0466543 24.275078 -1.1030585 1.8571428
1.016223 24.69516 -1.1145589 3.5
1.0389968 24.996061 -1.1135432 2.2
0.99310631 25.380306 -1.0717888 4.5
1.1745147 25.958334 -1.0647719 2
0.96668226 26.11104 -1.0598578 3.5250001
0.97985423 26.519962 -1.0227031 0.66666669
1.0726935 27.018751 -1.00907 1.7647059
1.0447103 27.363153 -0.97492772 0.5
0.92431849 27.826736 -0.95913166 0
0.92832047 28.085432 -0.95133078 0.25
0.94829744 28.49502 -0.88632882 2.4000001
1.0055209 28.932413 -0.8813557 2
1.0380529 29.309893 -0.87183499 2.8
1.040553 29.830191 -0.84569758 4.1111112
0.9571594 30.309496 -0.84638208 2
0.93785846 30.771307 -0.83179402 0
1.0163721 31.000612 -0.8067314 2
0.96725255 47.122505 -0.8170051 10
1.0380467 30.373188 -0.77245021 4
0.97765034 30.708649 -0.77863961 2
0.94661534 31.127333 -0.79442614 3
1.0207714 31.303812 -0.73715878 4
0.92733419 31.703451 -0.72559148 2.9166667
0.92129177 32.135925 -0.69786584 3.25
0.94981313 32.617107 -0.67961627 1.9090909
0.94488537 33.00906 -0.68422103 3.3333333
0.98290426 33.353413 -0.60881722 1.375
0.99004513 33.736755 -0.61337513 2
0.97482234 34.297451 -0.53764582 1.5
0.95084727 34.691154 -0.51496238 0.66666669
0.97879803 34.993828 -0.51744878 2.8571429
0.95533961 35.470367 -0.50149101 2.75
1.0365486 35.76495 -0.54219127 4.5
0.87926137 36.034199 -0.51431865 4.5
1.0574211 36.631454 -0.49004394 6
1.0010737 36.898453 -0.46368012 6.5999999
1.0207229 37.364136 -0.44472086 3
1.0811762 37.726505 -0.41292378 6
1.0366888 47.135098 -0.74905109 10
1.0415543 38.631599 -0.38818407 6
0.82941449 39.456879 -0.35071591 6
0.98070025 40.122482 -0.23872288 7
1.0293955 41.012997 -0.23555225 6.3333335
0.81395084 46.855183 0.36941651 10
1.0040377 47.158527 0.8438679 12
0.93959808 47.253971 0.8242783 12.1345
0.82292283 46.753281 1.441007 12.136
1.0799066 47.183662 1.5929794 12.1365
1.0557469 47.203281 1.5479891 12.137
0.98690051 -72.8722 1.8395247 15.132
0.94729221 -0.56759381 1.7916074 15.047
1.1023722 47.178783 1.7955321 11.070251
0.82057184 -2.9687529 2.2061682 16.1355
1.02191 -2.200726 2.3188248 18.761688
0.98999959 -1.5725855 2.1507998 18
1.0182513 -0.93705499 2.1691914 18
0.99587095 -0.23162435 2.195915 15.883
1.0619376 0.24304256 2.2833259 19
1.0809819 0.59235817 2.004765 15.0485
1.0664476 1.5599343 2.2431278 19.047001
0.99290615 1.8241968 2.2590859 16.106548
1.1049589 2.0228314 2.3928542 16.046499
0.94514394 47.139778 2.2357476 12.330226
1.1900419 47.203842 2.3186674 13.138
0.90995288 -72.889069 2.5919092 15.1345
0.97992718 -0.15048914 2.4837258 21
1.0320555 0.76936781 2.5223393 21
1.038108 1.8445274 2.6323216 17.537354
1.0089538 2.1068013 2.624454 17.346361
0.98661494 47.112148 2.5931766 13.700455
1.0230333 47.263256 2.4664664 13
0.82386917 -72.463562 2.8815956 15.135
1.0015202 1.9135576 2.9448013 17.360607
0.99758345 2.1523917 3.051888 19.38875
0.96000522 47.098587 3.0421951 15.718717
0.98699671 1.8555081 3.3614142 18.538462
1.0205834 2.0625305 3.3332469 18.111946
0.95388675 47.073975 3.3470926 16.337713
1.0134845 1.7070737 3.7970476 18.263159
1.0367614 2.0680399 3.7710996 20
0.9178012 10.90886 3.8845818 20.872641
0.96940875 47.051987 3.7533197 17.366951
1.0894909 1.5961099 4.1215281 18
0.9890489 1.6748766 4.2140746 19.289572
0.97902429 47.031189 4.179595 18.201416
0.9847821 47.328857 4.109406 15.026899
0.9845944 1.661296 4.5732684 19.39394
0.96258324 45.980839 4.6028214 16.014833
0.95592719 46.078197 4.7243738 18.0077
0.97536528 47.005936 4.6651592 18.708263
0.98332673 1.5921266 5.1483383 19.666666
0.97820222 1.6433853 4.9921536 21.25
0.80493426 41.155762 5.0420227 16
1.0940341 41.216084 5.0502377 16
1.0515189 45.924927 4.8528566 19.792873
1.0236177 46.257851 5.0005803 21.035995
1.0094421 46.543941 5.0723057 18.424952
1.0020876 46.994228 4.9271483 19.036909
1.0339589 1.5449709 5.448658 19.384615
0.96358633 1.6203296 5.5019093 20.950001
1.1208425 29.140787 5.5981398 19.134001
0.8641969 35.188576 5.5155439 18
1.0443442 35.201958 5.5195122 18
1.0039104 46.523483 5.2671237 20.521042
0.97346628 46.915207 5.4240279 19.606953
1.0894033 1.5908557 5.7915244 21.333334
0.99794596 1.6493965 5.7549233 21.071428
1.0403022 29.269564 5.6799312 19
1.07841 46.368114 5.9358168 20.739084
0.8852492 46.734726 5.6158724 22.04225
1.010778 46.953209 5.7856054 20.908543
1.0933783 47.205212 5.6944847 16
1.0504951 1.5785118 6.1130013 22
0.97947943 1.6732459 6.2648039 21.619749
1.0487697 46.471268 6.0365472 21
0.94918853 46.92543 6.285151 20.923616
0.9826678 1.6849039 6.6375284 22
0.87358624 2.2767932 6.7464404 21.133499
0.87516487 2.4178569 6.6151743 21.133499
0.96954584 3.3782299 6.6183424 21.133499
1.0037692 3.8977649 6.6179876 21.133499
0.98415226 10.627398 6.5767813 22.033375
1.1695604 29.199223 6.4844441 21.134001
0.91071236 46.928844 6.5829601 20.699125
1.0209117 1.6515713 6.8678417 22
0.9736653 2.7539928 6.9264636 22.134501
0.85707307 3.3351276 6.9228449 22.061001
0.94229937 4.8293095 7.083405 22.071751
1.0749717 19.759928 7.1241226 21
0.97206086 46.930386 7.026104 20.629715
1.1208206 4.7859559 7.3234301 22.134001
1.0957299 19.777445 7.4942546 22
1.0208991 28.776814 7.4875331 18
1.1181091 46.264435 7.5674129 22.04425
0.97561067 46.92511 7.4215016 21.448072
1.0991397 19.615927 7.9471607 22
0.91253024 28.37343 7.8467693 18.045
1.0387042 28.757921 7.7878389 19.045
0.99884188 46.264297 7.7267919 21.59025
1.0504873 46.903229 7.7253828 22.136499
1.1681975 34.737724 8.2559376 16.045
0.97259116 40.771435 8.1392107 16
0.95522213 46.756123 8.1770821 20.522749
1.0212609 46.880116 8.1703196 21.01355
1.1567123 40.72699 8.497014 22.042999
1.0086498 46.676056 8.579421 22.021999
0.98262852 -72.601311 8.8987246 16.0455
1.035252 46.626427 9.1570358 22
0.85304141 -73.808769 11.696973 18.0455
1.4965619 -38.971321 -4.1183391 12.137
1.290448 -33.066967 -3.8715656 12.137
1.3149098 -32.231476 -3.9505994 10
1.2542187 -24.036903 -3.7891834 9
1.2609512 -21.869234 -3.6298082 9
1.2161433 -45.762997 -3.568831 12.1345
1.3882627 -20.673281 -3.4454262 9
1.443951 -16.655058 -3.3104055 8
1.2883856 -15.250131 -3.1414838 8
1.3556606 -11.258566 -2.9418314 5
1.3339648 -10.656914 -2.9283321 5
1.4251912 -10.255252 -2.8344347 5
1.3364972 -9.2466946 -2.8665874 3
1.3986129 -8.2261009 -2.8296309 2
1.3149955 -9.0379047 -2.7869289 3
1.3979398 -8.1160755 -2.7514749 2
1.3952247 -7.2747231 -2.7978518 0
1.4151338 -7.0774875 -2.6937227 0
1.3933969 -6.3147488 -2.6859305 0
1.3843825 47.08456 -2.4547803 9
1.4831095 12.993956 -2.0636733 4
1.4349883 13.26079 -2.0625505 4
1.4721668 14.225066 -2.0728459 4
1.4115713 19.068224 -2.3367155 5.5
1.2697092 47.090149 -2.3491108 9
1.4446725 3.7541142 -1.9389346 6
1.3210862 4.4532881 -1.8932266 5
1.3573071 5.8872857 -1.8593187 4
1.4282576 6.5877919 -1.7951206 1.5
1.4055591 6.8520813 -1.8077168 1
1.3460572 7.9406157 -1.8495622 0
1.3693107 8.074173 -1.7596979 2
1.284972 9.1409416 -1.7162572 0
1.4685045 9.2635288 -1.7272966 0
1.3145032 9.8770208 -1.9282982 3
1.3445727 10.222528 -1.7542322 2.25
1.4922203 10.416625 -1.6914912 6
1.4605424 10.924388 -1.7412066 6
1.3834033 11.671896 -1.6714326 6
1.313331 14.970044 -1.6550887 7
1.394825 13.029349 -1.5988744 6
1.3905674 13.469216 -1.5685273 3
1.4321544 13.896102 -1.5351988 4
1.3003137 14.127307 -1.5310827 6
1.4008551 14.983874 -1.5013907 2.6666667
1.4584135 15.562162 -1.4624102 3
1.4170214 16.16354 -1.470179 3.1428571
1.527032 16.677652 -1.4270757 3
1.4494637 16.968395 -1.4018897 2
1.3839853 17.342218 -1.4745356 4.4000001
1.3769307 17.75139 -1.4568727 6
1.3588521 18.155771 -1.369625 1
1.3926122 18.54347 -1.4108645 3
1.4375153 19.061819 -1.3518144 3
1.4531393 19.389986 -1.3910482 5.9000001
1.4235679 19.724401 -1.3603483 5
1.4495456 20.341288 -1.2666451 0
1.3775809 20.683434 -1.3488489 3
1.4234556 21.021845 -1.2474515 4.4000001
1.3694584 21.442316 -1.2645347 2.2222223
1.3181822 22.21722 -1.213981 2.3333333
1.3850527 22.687708 -1.2266632 5.7692308
1.380208 22.923779 -1.2193869 4.5555553
1.3643311 23.288374 -1.244022 6
1.337288 21.999674 -1.1926228 2
1.5895375 22.240982 -1.1974616 0
1.2537137 22.513399 -1.1553996 6
1.4287127 23.156031 -1.169381 4.5
1.4122273 23.445486 -1.1613649 3.5999999
1.4449583 24.228504 -1.1193994 3
1.4079496 24.513012 -1.0895087 1
1.3592491 25.002266 -1.1036009 1.375
1.4582688 25.366602 -1.0741318 3.8888888
1.493556 25.937637 -1.065367 2.5
1.4051813 26.197863 -1.0478214 3.45
1.4343771 26.586668 -1.0054685 1.3333334
1.3339711 27.011028 -1.0020518 2.2941177
1.4402076 27.333559 -0.98307484 0.06666667
1.4289558 27.829544 -0.95328295 0
1.3914111 28.092003 -0.94688559 0.14285715
1.4007946 28.486666 -0.88592714 3
1.3901924 28.978241 -0.86598879 3.4545455
1.4233351 29.372868 -0.85515237 4
1.3689357 29.834562 -0.83771276 4.625
1.4888183 30.297857 -0.83951908 2
1.435433 30.725159 -0.82170093 0.33333334
1.4552857 30.98954 -0.80031878 2
1.4261281 47.168198 -0.81460345 10
1.5017694 -74.973511 -0.54264784 15.636499
1.2914174 -73.224258 -0.65188742 13.135
1.2905339 30.393995 -0.76842207 4
1.4147911 30.75701 -0.77157575 2
1.4486551 31.504673 -0.75396824 2.6666667
1.4543172 31.76277 -0.73382306 1.5
1.3718646 32.170689 -0.69263887 4
1.3999383 32.571682 -0.67690569 2.1111112
1.4207979 32.992229 -0.66134107 2.3888888
1.4118134 33.349575 -0.61939824 2
1.4187754 33.772015 -0.61483091 2.8571429
1.3934581 34.325943 -0.55668634 1.7142857
1.3632228 34.715355 -0.55087453 0.80000001
1.3525804 35.003105 -0.5049656 1.4285715
1.4091749 35.378899 -0.47043025 1.5714285
1.4389352 35.698704 -0.49198422 3.2
1.3636227 36.017868 -0.50912058 6
1.5050315 36.464661 -0.50154859 9
1.4333833 36.884109 -0.46236575 5.25
1.4461057 37.734352 -0.40673459 6
1.4787118 47.16193 -0.74407303 10
1.3711149 38.209862 -0.35576981 7
1.3234607 38.641731 -0.38284934 6
1.3119245 39.49221 -0.34191787 6
1.4973041 40.138523 -0.23334445 7
1.2765656 40.925369 -0.21893297 7
1.3248186 47.274506 0.34373441 10
1.3805215 47.193161 0.84293789 12
1.3325219 47.182201 1.5289788 12.1368
1.2579749 47.203789 1.5181133 12.14
1.4681172 -73.307617 1.8182813 15.203858
1.5989347 -2.1080039 1.8423421 15.047
1.4735659 47.174957 1.8373626 10.023334
1.3711964 47.225266 1.7477633 9
1.5630574 -73.123573 2.0066462 18.136499
1.2877125 -3.0121973 2.2831912 17.635376
1.4251106 -2.449543 2.1364784 18.047501
1.4076896 -2.1715229 2.396549 19
1.3662002 -1.6222218 2.1634586 18
1.417878 -0.9444865 2.1763179 18
1.3741987 -0.27466986 2.2095902 15.8834
1.3166829 0.12476659 2.1693399 17.025
1.4283835 1.5837585 2.2466931 19.04775
1.3981659 1.8171059 2.2684264 16.065344
1.4235036 47.144032 2.2107835 12.217597
1.5547646 47.208572 2.3225732 13.1375
1.3999891 -73.052155 2.6121428 15.7353
1.4110126 -0.26131904 2.4549034 19.090834
1.3371229 0.7687304 2.5292382 21
1.4198781 1.8622867 2.6168759 16.972103
1.362411 2.2178299 2.6028054 17.792807
1.4484333 46.769783 2.441648 13
1.3780767 47.120239 2.5921643 13.52428
1.4178846 47.284248 2.4731696 13
1.4294341 1.8853273 2.9182396 17.587416
1.4228907 2.1353173 3.0675254 19.023251
1.410695 47.090103 3.0459063 16.123108
1.385635 1.8824875 3.3517733 18.714285
1.4179322 2.0655148 3.3213367 18.078375
1.3987579 47.067532 3.3470056 16.290491
1.3903373 1.7345955 3.8254819 18.733334
1.4696211 2.0672283 3.7757473 20
1.3748642 10.900857 3.8858023 20.717426
1.3860728 47.046474 3.7546329 17.6043
1.4014939 1.5882039 4.1431513 18
1.4044361 1.6760359 4.2179165 19.246531
1.3033929 10.902231 4.0339465 21
1.402216 47.024868 4.1967554 18.272602
1.4005089 47.344296 4.1083703 15
1.4441129 -73.135254 4.4251523 18.136499
1.4196846 1.6581211 4.5404592 19.347826
1.3576534 45.965965 4.6124091 16.021999
1.4260668 46.060226 4.7184496 17.6
1.379527 46.749397 4.6763 16.044001
1.3939549 46.997334 4.6745152 18.592644
1.4032847 1.5844092 5.1537585 19.666666
1.4133141 1.637554 5.0162559 21.375
1.3823164 41.221054 5.0519118 16
1.4097517 45.933521 4.8555369 19.792562
1.3853254 46.13092 4.9691486 20.962608
1.4073285 46.563747 5.0463605 17.82015
1.4572723 46.9716 4.940764 19.215229
1.3907692 -74.431305 5.409389 19.136499
1.3880372 1.5399458 5.4521747 19.5
1.2970448 1.6088195 5.5047369 20.82353
1.3120564 24.065193 5.550406 21.133499
1.2239469 35.194775 5.5203471 18
1.4167556 35.242149 5.5518456 18
1.4105932 46.597927 5.293623 20.015686
1.3661271 46.929398 5.4510536 19.306187
1.4229172 1.5794332 5.730381 21.333334
1.4133525 1.638165 5.7698479 21.181818
1.4484642 29.268137 5.6830297 19
1.3909575 46.344707 5.9394245 22.041
1.4833779 46.747406 5.6246767 22.041
1.4121009 46.933365 5.7895288 20.532906
1.3755386 47.233589 5.7026029 16
1.2437843 -75.838776 6.1437297 16.1355
1.3632377 1.5721031 6.1454663 22
1.4163733 1.6734078 6.3089037 21.355389
1.3733594 46.432373 6.0297875 21
1.3729717 46.922146 6.2673178 20.495483
1.3883719 1.6841409 6.6400027 21.922407
1.5068165 2.5718117 6.656642 21.134001
1.2273122 2.8147109 6.79179 22.132
1.3721436 10.614429 6.6207004 22.067001
1.3883778 46.918873 6.5896053 21.074667
1.488409 1.647077 6.8862605 22
1.5175353 2.7991447 6.9248772 22.135
1.3137455 3.2377722 6.9322743 22.061501
1.3639843 4.8248844 7.0566149 22.087374
1.3765134 19.754398 7.129879 21
1.3546469 46.916172 7.0461698 20.083929
1.5232178 19.775818 7.5057955 22
1.4906367 28.785078 7.4984856 18
1.4228845 46.912033 7.4011292 21.348444
1.3680122 19.596905 7.9471865 22
1.520048 28.761559 7.8822231 18.5445
1.2936423 34.75692 7.7988229 16.045
1.4317002 46.111519 7.6885414 21.58975
1.4837495 46.899384 7.7302294 22.136
1.216437 34.736961 8.1803856 18.045
1.4151256 40.76181 8.1428833 16
1.4033339 46.753788 8.3293791 19
1.3534575 46.882748 8.1484175 21.194181
1.4239671 46.705963 8.5427065 22.014502
1.2150453 46.187595 9.0283604 22
1.4152336 46.560738 9.1434402 22
1.5017452 46.519997 9.2922983 22
1.8352245 -33.16325 -3.8741601 12.1375
1.8711656 -32.268253 -3.9496946 10
1.659377 -24.278788 -3.8190448 9
1.9696882 -22.020599 -3.6443944 9
1.6147993 -21.967793 -3.6403677 9
1.8540457 -8.4866848 -3.7380648 10
1.9339277 -20.846548 -3.4667652 9
1.8441731 -16.686441 -3.3141425 8
1.8173212 -15.276205 -3.1421547 8
1.769546 -11.222223 -2.9359334 5
1.7002145 -10.657341 -2.9312599 5
1.7228415 -10.270518 -2.8388789 5
1.8297364 -8.1472569 -2.8172126 2
1.8600364 -8.0586796 -2.7409353 2
1.7546285 -7.2243366 -2.7933259 0
1.8608851 -6.9729581 -2.68802 0
1.8539011 -6.2004118 -2.6864161 0
1.8499137 46.647549 -2.4315839 9
1.6113503 47.018459 -2.4634511 9
1.7386981 13.07258 -2.0589249 4
1.9942117 18.813156 -2.3152657 6
1.8559341 46.623947 -2.3191395 9
1.6229156 46.991333 -2.3401997 9
1.6177801 5.9220991 -1.853279 4
1.8832842 6.3874216 -1.772537 0
1.8058566 6.6679721 -1.7915339 1.5
1.7477708 6.9089761 -1.8118675 2
1.8869849 7.8136239 -1.8434193 0
1.8104026 8.1276436 -1.7541336 2
1.6311592 9.1733093 -1.7156563 0
1.8994073 9.2811594 -1.716469 0
1.8626294 9.7241583 -1.865714 5
1.7939824 10.160912 -1.8047813 1.5
1.7807022 10.447805 -1.6869483 6
1.8053025 11.135623 -1.9607902 3
1.8142241 11.731414 -1.6644186 6
1.8861656 13.344384 -1.6741371 9
1.8011299 14.991745 -1.6474394 7
1.7661308 13.070998 -1.5953685 6
1.6531041 13.488523 -1.5676639 3
1.7554877 13.947105 -1.5293294 4
1.7991774 14.204569 -1.521252 6
1.8072838 15.041254 -1.4951613 3.6666667
1.8638823 15.632668 -1.4561503 3
1.8057079 16.186749 -1.4611478 2.3333333
1.8215466 16.727217 -1.4217936 3
1.7804563 17.029551 -1.3974091 2
1.7462333 17.369699 -1.4473644 3.1428571
1.7637286 17.784081 -1.4343277 6
1.7753787 18.153536 -1.3709852 2.5
1.7176919 18.573729 -1.4051116 3
1.7517641 19.093029 -1.3896124 4.5
1.8340218 19.41983 -1.4358618 6.9285712
1.8190726 19.807259 -1.3217143 3.4000001
1.7446204 20.39189 -1.270197 0
1.9068074 20.6555 -1.2935427 1
1.7972766 21.026917 -1.2554104 4.6666665
1.8044387 21.461168 -1.2459824 2.1428571
1.9698223 21.653166 -1.2081709 0
1.7587479 22.203281 -1.2416581 6
1.8608383 22.695889 -1.223214 5.5714288
1.8000108 22.936831 -1.2155106 4.75
1.7049568 23.29767 -1.2421663 6
1.8305644 22.185211 -1.1901344 0.80000001
1.7444721 22.561674 -1.1488543 6
1.8118051 23.1241 -1.1632462 3.25
1.8049971 23.422825 -1.1447027 2.6666667
1.7407023 23.615347 -1.1884516 7
1.8069857 24.168194 -1.1255162 3.2
1.8090234 24.575758 -1.0826836 1
1.849226 24.99894 -1.0986636 2.5714285
1.7564176 25.378069 -1.0531728 4.4000001
1.8151867 25.97154 -1.0605726 2.3333333
1.8120416 26.331976 -1.033391 2.483871
1.8042667 26.565001 -1.0231295 3.1666667
1.8165771 26.949499 -0.99347359 4.5
1.845414 27.383402 -0.97216052 0.1875
1.7810456 27.839966 -0.94670939 0
1.8400677 28.128084 -0.93924606 0.80000001
1.8597296 28.524031 -0.88152754 1.5
1.7936553 28.915855 -0.88102525 1.625
1.8578894 29.36022 -0.83902574 4.8333335
1.7740442 29.770288 -0.83046108 4.7777777
1.7952087 30.100031 -0.81545776 5.1999998
1.7973628 30.683844 -0.8169446 0.5
1.7958232 47.134521 -0.81772619 10
1.8342942 30.97328 -0.78655988 2.25
1.7646474 31.478264 -0.73757482 3.2
1.8297487 31.795681 -0.74548233 1
1.8183736 32.120399 -0.67598265 1.6
1.8401994 32.544571 -0.70977509 1.8571428
1.7807597 33.030067 -0.62399215 2.6666667
1.724528 33.343857 -0.60773343 2.625
1.785416 33.732708 -0.59909838 2.4000001
1.813813 34.125511 -0.55224776 2
1.8173648 34.599255 -0.52640343 0.33333334
1.8001467 34.892433 -0.54502714 3.3333333
1.7971134 35.373444 -0.49101675 2.1666667
1.7973045 35.745804 -0.48543394 3.2
1.7788525 36.025906 -0.50576162 6
1.8698549 36.469738 -0.49823755 9
1.7837478 36.862335 -0.45260736 4
1.8062924 37.486397 -0.43860078 2.6666667
1.7185684 37.739422 -0.40300891 6
1.7187231 47.137424 -0.74079049 10
1.9929125 37.737789 -0.3996267 6
1.8619601 38.217361 -0.35135415 7
1.8412269 38.649727 -0.37445739 6
1.8330837 40.134151 -0.23017469 7
1.7559023 40.917625 -0.21170105 7
1.629952 41.217823 -0.22866745 6
1.8661731 46.798752 0.35946372 10
1.865541 46.813374 0.33726037 10
1.7878993 47.140553 0.84566057 12
1.763676 47.220299 0.82410485 12.134
1.8699784 46.716255 1.510949 12.1365
1.6099411 46.959999 1.5167445 12.13775
1.9269497 -73.978699 1.6298831 15.1335
1.6608551 -73.562363 1.6477747 15.133
1.6883006 -73.053375 1.814616 15.132
1.6395444 -3.5846617 1.8465039 15.047
1.6483847 -1.6309206 1.836973 15.047
1.7476517 46.735546 1.701677 10.159875
1.9952288 -73.294846 2.1345079 15.1345
1.702633 -3.1431563 2.3723085 19.1355
1.7162766 -2.437607 2.1415768 18.048
1.8187687 -1.6062359 2.1708322 18
1.8466226 -0.94875187 2.1852126 18
1.6863254 -0.23823188 2.2382209 16.091751
1.732901 0.25821179 2.2973194 19
1.7867002 1.5910708 2.2544999 19.0485
1.8303115 1.80826 2.2592101 16.06399
1.7853748 46.717751 2.1463754 12.080453
1.7998905 47.062054 2.237078 12.463111
1.6927587 -73.277008 2.4313526 15.134
1.8765312 -73.081879 2.4954324 15.1355
1.8075155 -2.2350638 2.4143994 19
1.8524154 -0.24324319 2.4735112 19.568501
1.773533 0.7780081 2.5398896 21
1.810892 1.8569183 2.6480825 16.970806
1.77232 2.1471429 2.6216514 17.471363
1.9566576 46.691036 2.4413934 13
1.7971783 47.047035 2.626451 13.669037
1.728822 47.214825 2.4740665 13.066999
1.8186196 1.9041736 2.9585419 17.693844
1.8487955 2.1399374 3.044615 18.882318
1.8199147 46.985332 3.0735877 15.952016
1.8112178 1.9095594 3.3521545 18.666666
1.858779 2.0528414 3.3363802 18.214285
1.7825989 46.988079 3.3945184 16.970457
1.9699739 1.5969366 3.9805322 18
1.7680192 1.7065213 3.8280857 18.375
1.8049961 2.0883193 3.816715 20.333334
1.8427242 10.892625 3.8745148 20.822351
1.7882843 46.9627 3.7710199 17.813168
1.7259203 1.586177 4.1287842 18
1.808544 1.6731864 4.2218676 19.474588
1.7397462 10.863295 4.0315456 21.379
1.7713555 46.950836 4.1740813 18.412075
1.7225511 47.289867 4.1175041 15.0335
1.8048053 1.6504641 4.567831 19.638889
1.6960121 45.953518 4.6130104 16.021751
1.883962 46.066608 4.7268105 18
1.7243989 46.647282 4.6800647 17.02125
1.7694967 46.91684 4.6417489 18.75922
1.7249044 1.5788591 5.0780172 19
1.8097565 1.631719 5.0157266 21.461538
1.7120218 41.220959 5.0534329 16
1.8294257 45.926067 4.857687 20.194834
1.849473 46.130264 4.983882 21.038643
1.8029962 46.565022 5.0553179 18.493166
1.908345 46.928551 4.9390635 19.6161
1.7774538 1.5703236 5.5127964 20.382978
1.7365339 1.6225345 5.4205341 21.166666
1.7326312 24.050695 5.5532169 21.132999
1.8113946 35.249504 5.563828 18
1.748999 46.605965 5.4320836 20.890751
1.8759798 46.901947 5.505147 18.874357
1.7877865 1.5817522 5.65942 21.142857
1.7815722 1.6460263 5.7880964 21
1.6223751 29.180145 5.6134224 19.133499
1.8582941 29.264589 5.6868429 19
1.7444783 46.32991 5.9333329 20.738001
1.7889745 46.693775 5.7262344 21.257849
1.8584411 46.925167 5.8264937 19.35737
1.8236079 47.221512 5.7265725 16
1.6895796 1.5609529 6.1520123 22
1.8171722 1.6800419 6.2727823 21.413099
1.6674008 40.3596 6.2479901 18.134001
1.6865784 46.395184 6.0245228 21
1.8419816 46.779018 6.2448273 20.758833
1.8123099 46.892063 6.2733989 20.672071
1.8555038 1.5947165 6.4913673 21.134501
1.8172455 1.6748809 6.6326585 21.973709
1.7664291 2.8408716 6.7920756 22.1325
1.6114514 3.4514711 6.615438 21.134001
1.6356114 3.9991319 6.6127386 21.134001
1.8168962 10.620679 6.5945582 22.061138
1.6560744 29.217056 6.5007625 21.133499
1.8531063 46.758968 6.7071228 21.424166
1.8319298 46.873924 6.5187788 20.257019
1.7719262 1.6462132 6.8697958 22
1.72013 3.3847663 6.9556317 22.063499
1.6051332 3.6872766 6.9858136 22.066
1.8916639 4.9275374 7.0498791 22.134001
1.8289132 19.74811 7.1412005 21
1.803388 46.775284 7.0333776 20.056252
1.8387821 46.874054 7.0141821 20.632868
1.6974967 4.8094993 7.3279061 22.134501
1.8126452 19.767313 7.5121589 22
1.8147542 28.776272 7.5027595 18
1.6040487 39.126446 7.4162493 19.134001
1.6710157 46.212399 7.5599813 22.043501
1.7918866 46.759212 7.483736 21.333334
1.7691392 46.876617 7.3659654 21.142857
1.8006614 19.590479 7.9588408 22
1.8829793 34.770618 7.7884049 16
1.8664505 46.087582 7.6913209 21.589249
1.9522812 46.859409 7.7268052 22.067749
1.8417675 34.737297 8.2289619 17.0445
1.8946362 40.758556 8.1489859 16
1.7851285 46.748547 8.1911821 20.567749
1.7733506 46.870415 8.1976337 20.903889
1.6135076 40.701637 8.6310921 22.0425
1.7991779 46.715557 8.4447632 22
1.6126531 -72.685257 8.8954773 16.046
1.7255075 44.859013 8.9902973 21.0425
1.7677383 45.783871 9.0357189 21.0425
1.8178161 46.654095 9.1792126 22
1.7634637 45.689907 9.2508135 22.135
1.7780501 46.504295 9.2935114 22
2.1528542 -38.892273 -4.1029859 12.1375
2.3822286 -33.230087 -3.8736098 12.138
2.0613995 -24.265842 -3.8141148 9
2.326704 -22.067165 -3.6476028 9
2.3108702 -20.986582 -3.4848089 9
2.244894 -16.673904 -3.3107855 8
2.2300012 -15.277223 -3.1398165 8
2.1907325 -11.218242 -2.9393826 5
2.0630703 -10.622482 -2.9274762 5
2.1712847 -10.268255 -2.841785 5
2.3497133 -9.363245 -2.8588543 3
2.2961159 -9.1394768 -2.8585775 3
2.2033432 -8.0767136 -2.8095007 2
2.3506365 -8.9659157 -2.7811692 3
2.2159641 -8.0148993 -2.7381177 2
2.2226212 -6.9972506 -2.7344227 0
2.1924458 -6.1259842 -2.6742039 0
2.3836811 4.2221346 -2.4074299 10
2.1881144 46.630367 -2.435076 9
2.1928811 13.06359 -2.04426 4
2.3034692 18.622807 -2.2964025 6
2.3997836 18.865238 -2.2828155 6
2.1703043 46.636456 -2.316504 9
2.3942642 4.1407137 -1.9169627 10
2.2039776 6.247735 -1.7636513 0
2.2963464 6.5470123 -1.77653 0
2.2305443 7.0063367 -1.8015842 2
2.2576661 7.6888824 -1.8370078 0
2.1760509 8.1218624 -1.7562433 0.66666669
2.1904116 8.9187212 -1.7852074 9
2.2842219 9.4335442 -1.774623 1
2.2129035 9.8294735 -1.8737857 4.5
2.1764693 10.344199 -1.6760014 0
2.2163851 10.496903 -1.6817188 6
2.1934431 11.051976 -1.9550678 3
2.2081664 11.272086 -1.6808174 9
2.2447386 11.808708 -1.6559994 6
2.1603322 12.255243 -1.8777443 9
2.2290099 13.079236 -1.7432857 9
2.2572534 13.247004 -1.7283124 9
2.3224716 15.03058 -1.6381608 7
2.3577023 1.9775542 -1.2764426 12.1345
2.3604784 4.0271673 -1.511382 10
2.1369095 13.118283 -1.5924108 6
2.2268951 13.451472 -1.5779591 9
2.3490012 13.633137 -1.5513518 3
2.1984816 14.090755 -1.5178154 4.4000001
2.1686978 15.125945 -1.4882051 2
2.3857064 15.229712 -1.4775558 0
2.1794896 16.233093 -1.4496481 2.3333333
2.2094014 16.416359 -1.4542876 4
2.1864522 16.978142 -1.3984693 2.5
2.1687777 17.431608 -1.41617 2.375
2.2183387 17.744545 -1.4262513 4
2.1645098 18.25305 -1.3583649 2.5
2.136158 18.635742 -1.3963215 3
2.1846256 19.084869 -1.3529785 6
2.1923547 19.412865 -1.4137594 6.0526314
2.2350283 19.729074 -1.3173734 2.75
2.2253118 20.081789 -1.2670724 6
2.2932506 20.531904 -1.2881566 0.85714287
2.1498656 21.059746 -1.2613854 4
2.1787934 21.348061 -1.2459098 2.5999999
2.2423248 21.726068 -1.2066716 0
2.2566748 22.235455 -1.2366616 6
2.1447983 22.705469 -1.2167275 5.4000001
