# .PCD v0.7 - Point Cloud Data file format
VERSION 0.7
FIELDS x y z
SIZE 4 4 4
TYPE F F F
COUNT 1 1 1
WIDTH 1552
HEIGHT 1
VIEWPOINT 0 0 0 1 0 0 0
POINTS 1552
DATA ascii
-8.9952211 42.69558 1.2593806
-9.0107718 42.839817 1.5261699
-9.0473051 -15.590052 1.9578891
-8.9623108 2.215492 1.7914256
-9.1380453 42.773567 1.727055
-9.0741186 42.810425 1.7426194
-9.0984449 -15.393724 2.1224585
-8.8677397 2.2157075 2.2292042
-8.9849234 47.348774 2.3185401
-9.0733671 -15.613853 2.589715
-9.0343122 -15.40823 2.7906513
-8.9243174 2.1973157 2.5452645
-8.984436 2.4504809 2.5553153
-8.9581165 47.383919 2.5721822
-8.9175463 -15.374292 2.8065534
-9.1768284 1.9861853 2.8519492
-9.0146112 2.2022903 3.0096035
-9.0202656 47.309872 3.0363274
-9.030057 -15.361751 3.4482853
-9.0446024 1.9483808 3.4754171
-8.9197598 2.2349792 3.5251663
-8.948267 47.301819 3.3446388
-9.0531578 1.9132826 3.7663143
-9.0343838 2.0884957 3.7108369
-8.9758091 47.267059 3.7958307
-8.9732504 -15.338711 4.0974226
-8.8519411 1.9131452 4.2002535
-8.8967342 2.1837909 4.3713641
-9.1111956 47.198143 4.299963
-9.0267715 47.246998 4.1588202
-8.9854116 -15.303136 4.7394319
-9.1011333 1.8809028 4.6565785
-8.9339924 2.1129811 4.6901031
-9.1429138 46.515285 4.7012072
-9.0724611 47.142914 4.6831517
-9.0557985 47.213749 4.6660891
-9.0704746 -15.348787 4.836175
-9.0208082 46.379677 4.9701705
-8.9859352 46.614487 4.9774699
-8.9569321 47.220043 4.9120426
-8.6305361 15.708581 1.0255563
-8.6174364 42.658905 1.1253619
-8.6085501 -15.507269 1.4188637
-8.6086559 1.9961238 1.3467346
-8.6607161 2.1378014 1.3070928
-8.6351929 15.712634 1.3225905
-8.5569963 42.690166 1.2661788
-8.4680204 42.835026 1.5204674
-8.6008196 -15.588383 1.7919477
-8.5949574 1.989715 1.820884
-8.6836758 2.0972528 1.824648
-8.5931568 15.688828 1.6840916
-8.6328115 -15.459554 2.0976865
-8.6339417 1.9750185 2.1360731
-8.5942879 2.0400202 2.1017945
-8.6324873 47.347721 2.3569093
-8.5694523 -15.417998 2.7660656
-8.5108471 1.969048 2.5369067
-8.5955343 2.1016254 2.556345
-8.6757832 2.4574516 2.6338375
-8.6118937 47.343513 2.5338826
-8.646225 1.9679904 3.0136685
-8.7399244 2.1118765 3.0335248
-8.6734438 2.4181628 2.8563311
-8.6067152 47.311897 3.0823271
-8.5673208 -15.392066 3.4125428
-8.5282879 1.9438732 3.4735308
-8.7682142 2.1299932 3.4292655
-8.5767355 47.292038 3.3259432
-8.5957794 1.9191927 3.7840986
-8.7946787 2.1789205 3.9259446
-8.6166763 47.271053 3.7784677
-8.5690022 -15.358548 4.0822401
-8.5470057 1.8943238 4.2581983
-8.5296211 47.173721 4.3408914
-8.6603451 47.243034 4.1460004
-8.5005445 -15.356572 4.7741852
-8.6643763 1.9300095 4.6393647
-8.7843275 2.0845017 4.6614914
-8.5085897 46.491386 4.7123137
-8.6756048 47.162167 4.6628098
-8.5793991 47.207794 4.5271816
-8.7553492 -15.35358 4.8015494
-8.6281967 1.8388782 4.9812708
-8.7850857 2.0994527 4.9779263
-8.5067358 46.368832 4.92837
-8.6220188 46.615917 4.9829755
-8.6499252 47.114204 4.9975138
-8.2759066 15.704722 1.0826799
-8.2080183 42.641087 1.1346591
-8.208518 -15.500718 1.443101
-8.0177917 1.9913985 1.3359829
-8.1527405 2.0895727 1.4118102
-8.1909256 15.707566 1.3500828
-8.1624918 42.676628 1.2578229
-8.1960993 -15.612245 1.8696088
-8.0591917 1.9739544 1.7939987
-8.1735191 2.0910528 1.7850375
-8.2142887 15.689179 1.6955613
-8.194953 42.770477 1.7442231
-8.2865019 -15.615839 2.0049274
-8.1425762 -15.427561 2.1146355
-8.0436325 1.9567592 2.0712264
-8.1357164 2.0761404 2.1883221
-8.1936903 -15.635544 2.4827526
-8.1390934 -15.409717 2.7443106
-8.0511646 1.979286 2.5872438
-8.1723366 2.1340511 2.5585129
-8.2221832 2.4947126 2.6030216
-8.0615873 47.102581 2.4991903
-8.2032967 47.356907 2.5083086
-8.0956793 1.9618804 3.0059121
-8.187602 2.1334157 2.9846404
-8.2651224 2.4257205 2.8952434
-8.0172729 47.003906 3.1936679
-8.3246508 47.281975 3.1249373
-8.152832 -15.406451 3.3800993
-8.1535912 1.9380994 3.4867814
-8.2026834 2.0565653 3.4478841
-8.2793856 47.290276 3.2883139
-8.0951881 1.9275652 3.7899764
-8.1754827 2.0369251 3.9077706
-8.1121454 47.014114 3.9067254
-8.3147392 47.264606 3.8130016
-8.2145805 -15.368458 4.030457
-8.107091 1.903442 4.2516646
-8.1727657 2.0243051 4.2507782
-8.1640396 47.067322 4.1832061
-8.3424015 47.250946 4.2047019
-8.2634373 -15.339027 4.6857896
-8.1655397 1.8950353 4.6060777
-8.1903982 2.0227628 4.5753846
-8.1625071 46.332642 4.7628269
-8.1309319 46.567646 4.755827
-8.1163568 46.988823 4.5741911
-8.1357059 1.8977975 4.9853635
-8.1541977 46.358402 4.8858395
-8.2068262 46.98436 4.9531074
-7.7579923 1.9921674 1.1014574
-7.8030171 15.695982 1.0938957
-7.8180809 42.638462 1.1368965
-7.7928295 -15.60848 1.4363118
-7.8261504 -15.503518 1.4143902
-7.8210387 1.9884286 1.3859198
-7.7765679 2.0441325 1.3903177
-7.8400769 15.690626 1.3613921
-7.8174043 42.665581 1.2524755
-7.8489633 42.894756 1.5352647
-7.9663787 -15.623223 1.9668766
-7.8551702 1.9803356 1.8282899
-7.7754021 2.0174565 1.7280537
-7.7819819 15.672381 1.7026919
-7.8750181 42.794697 1.7241011
-7.9042573 42.896664 1.7488669
-7.8191252 -15.441024 2.0930893
-7.7962523 1.9676181 2.2312815
-7.7935305 2.0336816 2.1299028
-7.9203715 47.132748 2.1855338
-7.6872563 47.337986 2.1673446
-7.8727283 -15.421013 2.7208681
-7.8188548 1.9571618 2.6202869
-7.8320012 2.1259053 2.5724869
-7.8821335 2.4868824 2.598969
-7.8952546 47.149284 2.5816104
-7.8084249 47.311775 2.5659885
-7.7657571 1.950127 2.9946618
-7.7813315 2.1404641 3.0214107
-7.7859745 2.4719756 2.8528802
-7.8999157 47.164307 2.9156384
-7.8526936 47.273228 3.0767794
-7.8445826 -15.401007 3.3550086
-7.8425679 1.9201854 3.4425306
-7.875885 2.1632924 3.2973571
-7.872848 47.067261 3.2816558
-7.8329191 47.249813 3.35798
-7.8240056 -15.365922 3.9704549
-7.8180337 1.9016938 3.8113971
-7.9221506 47.07066 3.7578657
-7.7853546 47.249043 3.8617771
-7.8291178 -15.404401 4.042304
-7.8186731 1.8645967 4.2221646
-7.8974652 47.099346 4.1620646
-7.8499851 47.243584 4.1005917
-7.7988772 -15.35937 4.654058
-7.8436713 1.8614256 4.5952191
-7.7967434 46.48011 4.7560911
-7.7866168 47.104279 4.5806274
-7.9491372 47.202209 4.6275506
-7.8623552 47.052277 4.9676728
-7.2900252 -15.61747 1.1884629
-7.3651085 1.9931973 1.036015
-7.3545685 15.68604 1.05176
-7.4183373 42.620213 1.1442244
-7.3952374 -15.617376 1.3502536
-7.4094081 -15.485275 1.4618179
-7.3759546 1.9823339 1.3880776
-7.3303242 2.0337765 1.3850905
-7.4521608 15.678831 1.3676577
-7.3994508 42.65173 1.2568491
-7.5622454 42.867954 1.4597692
-7.2740636 -15.641663 1.8360566
-7.3902965 1.97192 1.8334355
-7.3969293 2.0097773 1.7253031
-7.4088879 15.637695 1.7164037
-7.4515281 42.914371 1.7226402
-7.4398441 -15.458157 2.0785124
-7.3658953 1.9536617 2.2183244
-7.3199482 2.0419524 2.1883714
-7.4656081 47.338039 2.1858206
-7.4684324 -15.438621 2.7021878
-7.4247622 1.9555005 2.5764642
-7.3796229 2.0940921 2.6374869
-7.3996534 2.4732552 2.6995516
-7.4260707 47.308605 2.5504003
-7.3646154 1.9760892 3.0485592
-7.3883986 2.1513321 2.9921262
-7.3827572 2.4374292 3.0393555
-7.3647547 47.283451 2.9379089
-7.476295 -15.419816 3.336333
-7.3885479 1.910467 3.4597955
-7.4483695 2.2298653 3.2557032
-7.4987764 47.264683 3.3408346
-7.4897337 -15.367449 3.9377079
-7.4218273 1.8710235 3.857012
-7.4249492 47.220539 3.8921776
-7.45297 -15.412311 4.0131526
-7.4071937 1.8522804 4.2533669
-7.4346828 47.181686 4.3454885
-7.4500422 47.217209 4.1362572
-7.4503894 -15.371537 4.6442485
-7.3891602 1.8422157 4.5795832
-7.4686003 46.445404 4.6854582
-7.4932637 47.164555 4.5684161
-7.3866615 47.218281 4.5459127
-7.2649274 46.373756 4.8195515
-6.96735 -21.323065 1.1740174
-6.9915495 -20.854624 1.1091778
-6.8961706 -17.86235 1.0018324
-7.0127931 1.9897697 1.0181117
-6.8925266 11.52764 1.1713644
-6.9687319 15.673569 1.0560491
-6.9594808 42.609341 1.1484807
-6.8032184 -21.823595 1.5001965
-6.8788013 -16.997213 1.5666059
-6.8829212 -16.441816 1.5256799
-6.8632741 -16.0872 1.4931718
-6.9338622 -15.635427 1.4101565
-7.0020337 -15.50651 1.4569713
-7.0446 1.980611 1.408157
-6.9553819 2.0232825 1.3798287
-7.0283823 15.65902 1.3616039
-7.0204301 42.641388 1.2614975
-7.1286774 42.849197 1.4568372
-6.8070407 -21.82408 1.9074464
-6.9764547 -20.753345 1.8592184
-6.9313979 -19.961319 1.8459499
-6.9109888 -18.834282 1.7524754
-6.920156 -18.282946 1.6563091
-6.8839979 -17.793327 1.666409
-6.9128304 -17.387531 1.6030726
-7.0305552 -15.626699 1.8609785
-6.9664969 1.9636189 1.8255842
-7.0509915 2.0076334 1.7180877
-7.0477128 15.622959 1.6944437
-6.9132538 -18.145266 2.3497906
-6.8717875 -17.670189 2.3207359
-6.9130864 -17.288027 2.2574525
-6.8884201 -16.984011 2.2117774
-6.8639679 -16.775793 2.2185113
-6.8825421 -16.20116 2.1283185
-6.8484845 -15.929425 2.1220672
-7.0029092 -15.479636 2.0633373
-6.995326 1.9377451 2.2141645
-7.0022774 2.2127962 2.2511623
-6.9810553 47.335945 2.2203157
-6.8864017 -18.667532 2.4357388
-6.8570943 -16.063469 2.7619343
-6.8702269 -15.605815 2.6807222
-7.0065999 -15.473969 2.6762619
-7.0576921 1.9366729 2.6059313
-7.1448555 2.0994353 2.6268995
-6.9714227 2.4305174 2.510108
-7.0685735 47.303917 2.5422578
-6.8825359 -17.808041 3.0154586
-6.9086437 -17.375635 2.9414368
-6.8660879 -16.94985 2.8917272
-6.8945723 -16.460938 2.8065648
-7.03161 1.940565 2.9628026
-6.9989486 2.1316633 2.9215782
-7.1385093 2.4145961 3.0279875
-7.0730958 47.283195 2.9450204
-6.8681197 -16.861507 3.5296474
-6.8921146 -16.420399 3.4500089
-6.8470998 -16.003645 3.4200263
-6.8471065 -15.995433 3.372848
-6.9680357 1.9018956 3.4084718
-7.1300812 2.2577376 3.2378368
-7.0071878 47.243122 3.3978548
-6.8725729 -17.754755 3.6912129
-6.9062071 -17.332352 3.6150932
-6.8811517 -17.006933 3.6017408
-7.0040617 -15.451662 3.9298508
-7.0286045 1.8762202 3.8078709
-6.8902631 47.166393 3.7459333
-7.0020022 47.216335 3.8671441
-7.0440283 1.8237293 4.1932955
-7.0553083 47.180874 4.2429981
-7.0123234 47.218594 4.1632643
-6.9810457 1.8309658 4.5812383
-6.947175 46.365517 4.7945604
-6.9932771 46.445412 4.6984372
-7.0787911 47.161335 4.565464
-6.9777775 47.204132 4.5454297
-6.953989 46.696388 4.9758267
-6.7983947 -21.708914 1.1372006
-6.7873707 -20.580469 1.0547595
-6.7390418 -18.1215 1.1472173
-6.7037339 -16.120461 1.0788983
-6.5395722 2.0341768 1.0653157
-6.7611604 11.544885 1.0514189
-6.7650356 11.768122 1.0592613
-6.7329297 12.26184 1.0945632
-6.7447405 12.632375 1.0663661
-6.7295585 13.039264 1.0607231
-6.7073369 13.42515 1.0867498
-6.725605 13.80055 1.0700707
-6.7095881 14.226405 1.0462346
-6.68542 14.563372 1.0383686
-6.6897745 14.970795 1.0019281
-6.6778278 15.436688 1.0185179
-6.7011967 15.660132 1.0060651
-6.6850023 42.589684 1.1362964
-6.7788687 -20.747858 1.3952327
-6.7681518 -19.811199 1.4187369
-6.7483859 -18.914043 1.2206547
-6.7427025 -18.696712 1.501074
-6.7309041 -17.805401 1.4141312
-6.712481 -16.96324 1.332692
-6.7067451 -16.782913 1.5863115
-6.6985192 -16.142853 1.411466
-6.7205644 -15.633288 1.2689427
-6.513577 1.9747839 1.423942
-6.554307 2.0137725 1.3783633
-6.7492433 11.502217 1.486341
-6.7410316 11.766054 1.353848
-6.7379565 12.162539 1.3784037
-6.7348199 12.604898 1.3333883
-6.7350459 13.008767 1.366387
-6.7062597 13.410171 1.4003601
-6.7194195 13.821593 1.3959129
-6.7108817 14.251482 1.381807
-6.70116 14.610857 1.3979145
-6.7006965 14.980301 1.3816663
-6.6808944 15.437272 1.3928697
-6.7125869 15.64941 1.3570499
-6.6120214 42.634064 1.2860918
-6.5577703 43.052284 1.2856965
-6.7888856 -22.190762 1.7580283
-6.7847729 -20.963802 1.6410282
-6.7822537 -20.641575 1.7806575
-6.7607522 -19.666561 1.8127781
-6.7504497 -18.886114 1.8481309
-6.7316003 -18.216757 1.7632468
-6.7354536 -17.50869 1.6767926
-6.7203698 -17.032949 1.9022406
-6.7034326 -16.290642 1.8616984
-6.727715 -15.664527 1.7852974
-6.6000762 1.9687146 1.8070946
-6.6633244 14.174232 1.6092018
-6.6600142 14.593364 1.6123487
-6.6482649 15.006424 1.642064
-6.6615739 15.481967 1.6458697
-6.6554461 15.635571 1.6893971
-6.6281037 42.70993 1.7643315
-6.6444931 42.904354 1.7082111
-6.7778344 -20.690187 2.0790203
-6.7730627 -19.888664 2.2628503
-6.7672105 -19.54604 2.3530316
-6.7386227 -18.811409 2.1244361
-6.7510686 -18.613388 2.2248459
-6.7261057 -17.87347 2.0645547
-6.7271576 -17.112886 2.022186
-6.6957126 -16.165855 2.3979838
-6.7277842 -15.667977 2.32513
-6.5952659 1.9372064 2.2227817
-6.5346551 42.690655 2.2953672
-6.5521207 42.925182 2.2366111
-6.4108934 44.269844 2.158164
-6.5987554 47.330238 2.2214768
-6.78719 -21.037783 2.4103963
-6.7821116 -20.584007 2.4970455
-6.7246156 -17.810019 2.6560616
-6.5684104 1.9250383 2.6084611
-6.6071568 2.2104366 2.5981383
-6.4285793 2.4495749 2.4795692
-6.7008586 47.292976 2.5489292
-6.7445493 -18.748734 2.8059833
-6.5822935 1.91487 3.0496674
-6.6047931 2.1156011 2.9475231
-6.7669463 2.4114599 3.0061398
-6.7048821 47.269527 2.9369111
-6.5480356 1.8908617 3.4060152
-6.6315579 2.2108762 3.2135398
-6.6224408 47.241127 3.383245
-6.5982013 1.8554273 3.8482511
-6.5863681 47.130493 3.9233289
-6.6351328 47.218063 3.7926641
-6.5415902 1.8116558 4.1730142
-6.646162 47.178074 4.2473269
-6.6149268 47.21595 4.1330614
-6.5646558 1.8187884 4.5747795
-6.6623254 46.429657 4.6820593
-6.6178484 47.16032 4.5769029
-6.553966 46.688957 4.9061284
-6.3238554 42.678509 1.1388916
-6.2181401 1.9714149 1.377712
-6.1875749 2.0095117 1.3676114
-6.1557126 42.743668 1.2703934
-6.3312783 42.818535 1.4523361
-6.190012 1.9560752 1.7941726
-6.2318864 42.747604 1.8112688
-6.2840261 42.941925 1.8212466
-6.3571534 44.29863 1.9082062
-6.2548466 44.447926 1.9289356
-6.1811385 1.925274 2.2423556
-6.1163664 42.764553 2.1529438
-6.2344685 42.822296 2.0055587
-6.1782775 43.410484 2.3150742
-6.3014202 43.873425 2.3621099
-6.2951889 44.215382 2.2872212
-6.2787275 44.490639 2.0509222
-6.23985 47.317089 2.1991708
-6.2183576 1.9189355 2.5434618
-6.191349 2.1609366 2.5186548
-6.3703718 43.813457 2.4011242
-6.3101625 44.261959 2.4403276
-6.1496692 44.503407 2.4612761
-6.1318212 47.154453 2.6875629
-6.2696514 47.265682 2.6855781
-6.1595597 1.9502023 3.00752
-6.20894 2.1439989 2.9976616
-6.1786394 2.4021437 3.0628524
-6.2329035 47.261219 2.9946673
-6.1902909 1.890404 3.4067583
-6.2407408 47.221813 3.3822727
-6.2166452 1.8579057 3.8277442
-6.1666031 47.164165 3.9088638
-6.232759 47.220978 3.8210704
-6.2039018 1.8252052 4.183938
-6.2626271 47.174358 4.2305794
-6.1645336 47.212456 4.2314091
-6.1980615 1.8099824 4.5505977
-6.2451286 46.39286 4.7094092
-6.3139215 46.50098 4.6794686
-6.2517247 47.153824 4.5721288
-6.2334146 46.35215 4.8238988
-6.1740518 47.090717 4.9677496
-5.897151 2.0042214 1.1443803
-5.7858276 42.722435 1.1513013
-5.7936034 1.9637549 1.3255445
-5.743856 2.060287 1.2579578
-5.8072352 42.747437 1.3201261
-5.7890182 1.9349459 1.8221411
-5.65804 2.0511003 1.8935843
-5.785037 42.728851 1.8273097
-5.8510284 43.083221 1.8698996
-5.7854714 44.223129 1.844312
-5.7828107 44.626648 1.8040115
-5.6382203 47.319099 1.7352669
-5.8426728 1.9247459 2.2619412
-5.8498063 2.0764081 2.2679236
-5.7835283 42.751774 2.199559
-5.9093361 42.802364 2.164722
-5.8199167 44.216022 2.1427872
-5.7255101 44.578266 2.2066634
-5.8667331 47.30595 2.2139757
-5.8019085 1.9272676 2.5542603
-5.7563467 2.0715983 2.6343625
-5.7116852 42.683041 2.6156058
-5.6799912 44.573784 2.4153631
-5.807898 47.127823 2.7580061
-5.8971915 47.26107 2.6921728
-5.8883066 1.9441177 3.0092831
-5.8344841 2.1107581 3.1258891
-5.8548455 2.4286928 2.8995783
-5.6612091 42.711746 2.9352438
-5.760509 42.894859 3.0647595
-5.6961794 43.206429 3.0621009
-5.6359634 43.81152 3.0985599
-5.8177552 47.254513 2.9705443
-5.8340845 1.8687565 3.4069571
-5.7429333 2.0574682 3.2752819
-5.7057228 43.802986 3.355541
-5.7006216 47.197674 3.3470566
-5.8656712 47.221882 3.3770413
-5.7562809 1.8509799 3.8426626
-5.8170753 47.179501 3.8520932
-5.806551 47.224567 3.8182616
-5.7861533 1.8134413 4.181004
-5.8371825 47.172634 4.2025847
-5.8777671 47.208237 4.2285357
-5.8667746 1.7973059 4.5389342
-5.8376508 46.392509 4.7611976
-5.8233314 47.151882 4.5128288
-5.8248873 46.372215 4.8213272
-5.7820282 47.110867 4.9770479
-5.3906298 1.9793508 1.1100228
-5.4352694 2.0164835 1.0766827
-5.3825436 1.9536037 1.348837
-5.4736495 2.0094495 1.3574513
-5.3861508 42.738537 1.2921076
-5.3351135 47.330212 1.5381632
-5.3752565 1.9391673 1.8738217
-5.4086733 42.71133 1.9165897
-5.3300052 47.326984 1.7660273
-5.4062061 1.9265717 2.2578914
-5.5023723 2.0799801 2.3874593
-5.4289947 42.725147 2.1976037
-5.3524671 42.801178 2.1840849
-5.5632529 47.176918 2.1899796
-5.4296317 47.286308 2.2075944
-5.4172564 1.9156706 2.5790031
-5.4734507 2.0362647 2.6756175
-5.3610868 2.4257329 2.5857363
-5.4433856 42.744598 2.5971608
-5.37012 42.905399 2.6889567
-5.306881 44.476105 2.4243798
-5.2600012 47.163162 2.7453282
-5.4623594 47.256046 2.6920333
-5.3962326 1.9335634 2.9309988
-5.3800716 2.1708064 2.9633181
-5.3799171 2.4874506 2.9904094
-5.4508586 42.757233 2.8453152
-5.4205728 43.004375 2.9992774
-5.3114581 43.407825 2.9802773
-5.3252764 43.881535 3.0242357
-5.2381425 44.133163 3.0105734
-5.4289804 47.245186 2.9916985
-5.3760924 1.8669398 3.4067872
-5.479146 2.0232384 3.2525098
-5.5400858 43.386066 3.2388587
-5.4148793 43.727837 3.2172005
-5.5574527 44.06218 3.312645
-5.3469982 47.192207 3.3459866
-5.4363952 47.223827 3.3856554
-5.5073714 1.8210405 3.796665
-5.4434609 47.173008 3.8491738
-5.416677 47.214489 3.8021755
-5.390389 1.8013644 4.1615286
-5.4156394 47.165634 4.2329955
-5.4922104 47.205589 4.1936955
-5.3876624 1.7885683 4.5140705
-5.559082 46.376869 4.6691446
-5.4281912 47.142033 4.588325
-5.4790382 46.525063 4.899909
-5.4117117 47.089401 4.95927
-5.0820456 1.9756041 1.0022087
-5.0140581 2.0219839 1.0175277
-4.9370646 42.742279 1.0315976
-5.0820675 1.9465693 1.3285106
-4.9639511 2.0966794 1.3035278
-4.9824662 42.71249 1.2954413
-4.9726501 47.327576 1.5088104
-5.08812 1.9458133 1.8729641
-4.9234009 2.0109515 1.7971306
-4.9623184 42.343559 1.7652926
-4.9190078 42.720737 1.9088851
-4.9557152 42.854652 1.9944638
-5.1299863 47.152218 1.6167953
-4.9036236 47.318928 1.7159705
-5.0684834 1.9174162 2.2712765
-4.904222 2.2242258 2.2439497
-4.9948421 42.730064 2.1734965
-4.8887129 42.94511 2.2443724
-4.8559122 43.493568 2.3027072
-4.8468423 43.755554 2.340008
-4.8715782 44.097164 2.3683777
-4.8434334 44.532551 2.3935304
-5.1623659 47.133087 2.2798915
-5.0044751 47.285549 2.2057331
-5.1286139 1.9446272 2.5624287
-4.9388714 2.3147423 2.6437492
-5.0798926 43.00721 2.603807
-5.014791 43.443653 2.661382
-4.9435019 43.835583 2.6399138
-4.8973589 44.215378 2.6606276
-4.8528366 44.509678 2.4090645
-4.9994426 47.263092 2.6029389
-4.907516 1.9359193 2.9925861
-5.0770001 2.1635895 2.9979479
-5.1183314 43.088367 2.870409
-5.0673676 43.410103 2.8979897
-5.0586715 43.846535 2.9439962
-5.1400418 44.326096 2.9016821
-5.0272665 47.241497 2.967243
-5.0384812 1.8574464 3.3879662
-4.9519129 47.155487 3.4616573
-5.0479231 47.213589 3.4079154
-5.1415129 1.7920331 3.6958973
-5.0213895 47.179153 3.827203
-5.0326009 47.211498 3.7815883
-5.076508 1.7984852 4.2442684
-5.0436215 47.155846 4.2303619
-5.1054959 1.7749178 4.5387964
-4.8361468 46.355293 4.7367949
-4.9680037 46.493973 4.7191663
-4.9904571 47.140144 4.5718474
-4.6020103 42.767914 1.1054617
-4.516171 42.973793 1.0190916
-4.4541788 43.388134 1.03275
-4.6201839 1.956697 1.3916513
-4.6968961 2.1616673 1.3319238
-4.6582198 42.765511 1.337978
-4.5107636 43.011257 1.304381
-4.4733195 43.381134 1.4159647
-4.4629378 43.792133 1.3920833
-4.5835705 47.316952 1.5234821
-4.5882425 1.9333116 1.7961498
-4.7128453 2.076602 1.9092295
-4.7677288 42.726574 1.8001473
-4.6727943 42.923969 1.80977
-4.6944594 43.42284 1.8052104
-4.6397295 43.782196 1.8277649
-4.7022886 44.120701 1.871681
-4.6469984 44.551205 1.9065218
-4.6263485 47.310383 1.7608957
-4.6107063 1.9214944 2.2089858
-4.6830258 2.1325929 2.2290201
-4.5831175 42.747086 2.2186933
-4.7533326 42.997753 2.2296875
-4.7851996 43.533817 2.2629411
-4.7718244 43.856007 2.2948024
-4.772428 44.026802 2.2905307
-4.7441115 44.565277 2.179276
-4.5070148 47.195637 2.2032583
-4.6018124 47.274666 2.2030957
-4.4818702 -74.13237 2.4095395
-4.5653358 1.9157777 2.5258462
-4.6427855 2.21222 2.5974655
-4.7875729 43.521816 2.4180319
-4.7847066 43.759789 2.453604
-4.6277013 47.263298 2.5965223
-4.6141615 1.9186679 2.9706445
-4.7185283 2.1423151 2.9404528
-4.5762067 47.164082 2.8672469
-4.6254659 47.23317 2.9976437
-4.5759158 1.8526114 3.4033098
-4.6223903 47.178757 3.4347203
-4.621768 47.21384 3.3924139
-4.6640334 1.8265826 3.8371866
-4.6151004 47.155853 3.8191149
-4.6841226 47.20673 3.7616181
-4.6189032 1.824299 4.172483
-4.6282549 47.136803 4.2036576
-4.5922241 47.233021 4.2191887
-4.4322057 1.7815856 4.4165196
-4.4516768 46.358074 4.7510386
-4.6853957 46.754654 4.711133
-4.5985613 47.121151 4.5700154
-4.2462606 2.0060308 1.0143822
-4.2111392 1.9434245 1.3740764
-4.025166 2.0517695 1.3357257
-4.2116408 47.313152 1.4840788
-4.1984901 1.9216827 1.7954792
-4.1322122 47.275658 1.7609376
-4.208849 1.9015201 2.2244394
-4.1438913 2.2169008 2.3511908
-4.0733132 47.198322 2.2017739
-4.1895447 47.262287 2.214545
-4.173007 1.896883 2.6104701
-4.1828761 2.1336522 2.5428803
-4.1724243 2.6171927 2.7722707
-4.1895523 47.24131 2.5782833
-4.1687822 -74.072746 2.8857303
-4.2233882 1.8836066 3.0115335
-4.1506743 2.2420828 2.9582016
-4.1802454 2.5024443 2.8577194
-4.157589 47.175339 2.9782267
-4.2393322 47.225147 3.0164678
-4.1711531 1.8491175 3.393435
-4.2089677 47.174477 3.4480193
-4.2144017 47.211857 3.438715
-4.2304039 1.8315935 3.7513034
-4.237783 47.169567 3.8264079
-4.2020907 1.8094555 4.0278568
-4.2181659 47.124561 4.1711779
-4.0921741 46.368237 4.7309394
-4.2020836 47.107014 4.6267915
-4.1575694 47.054104 4.9597406
-3.7288725 47.299511 1.1674669
-3.788835 1.935859 1.3535709
-3.8332968 47.305344 1.4437793
-3.8050196 1.913959 1.7601784
-3.9635623 2.0691922 1.7766843
-3.7454817 47.263344 1.7099919
-3.7268665 1.8843769 2.233305
-3.8030846 2.1333792 2.3516016
-3.7292104 47.192699 2.2000616
-3.7701113 47.24823 2.2192297
-3.8207247 -74.176537 2.6154673
-3.7623086 1.8721206 2.603426
-3.7766011 2.0654402 2.5287259
-3.7517481 47.194233 2.7357495
-3.8024006 47.229717 2.6027467
-3.7862506 1.8946823 2.9855115
-3.7527347 2.1371632 2.9120154
-3.7913342 47.186943 3.0334001
-3.8806281 47.218681 3.0227733
-3.8156712 1.9188221 3.3826108
-3.8804996 2.0877178 3.2885871
-3.7937701 47.172184 3.3315284
-3.8451321 47.205067 3.4412096
-3.6322808 1.9105309 3.6401856
-3.6488719 11.048247 3.7696991
-3.8021953 47.136093 3.7955086
-3.6263967 6.1744795 4.2529674
-3.6333807 10.873005 4.1401896
-3.8093004 47.119041 4.2462916
-3.9935153 46.357563 4.7889819
-3.810195 47.107384 4.5549488
-3.7690377 47.053074 4.8791771
-3.4360964 1.9485724 1.0819284
-3.2468452 2.0942855 1.0190166
-3.3322179 2.5111594 1.0815513
-3.2750158 47.288513 1.1852317
-3.4735727 1.9363781 1.3527837
-3.2607579 2.1085403 1.3079016
-3.2390435 11.126014 1.4477845
-3.2591972 11.235176 1.4281957
-3.3556602 47.300816 1.3782293
-3.4553106 1.9070277 1.7974414
-3.24318 2.0668919 1.7767614
-3.2669661 11.077516 1.7043869
-3.3414788 47.268417 1.7108775
-3.4016292 1.9111757 2.2383425
-3.2827728 2.075026 2.2607863
-3.369617 47.184235 2.198153
-3.3671453 47.244652 2.2081261
-3.4297099 -74.195328 2.7563031
-3.3169227 -73.890717 2.4543915
-3.4292088 1.884262 2.5726445
-3.2697589 2.0631504 2.5501237
-3.3038962 47.191338 2.7391553
-3.4435647 47.22517 2.6310229
-3.3777158 -74.393654 2.8038149
-3.479105 1.8904938 2.9802666
-3.3072898 2.1640201 2.9099498
-3.4218173 47.183651 3.0692575
-3.3976109 47.211853 3.020278
-3.4851587 1.9562318 3.3724837
-3.4162955 2.0494351 3.2855783
-3.3658602 11.014974 3.5116997
-3.3613586 47.162888 3.3702395
-3.3584018 47.206818 3.2210975
-3.3898041 1.8933148 3.7372043
-3.3869469 10.965179 3.7841365
-3.5048783 11.284335 3.9376945
-3.4277267 47.147728 3.7813222
-3.3632886 10.930595 4.0711055
-3.4955184 12.699546 4.3772912
-3.4026716 19.983517 4.3056507
-3.2021513 20.216551 4.3870754
-3.4330399 47.108829 4.2474599
-3.3968217 10.926097 4.5921979
-3.4365256 12.99721 4.6813626
-3.4403555 14.608293 4.7640591
-3.4591613 14.821313 4.753747
-3.4150541 15.409429 4.7137818
-3.4126694 15.889676 4.718967
-3.3961272 16.502985 4.7255282
-3.3895149 17.471394 4.61622
-3.3702648 17.76285 4.6798172
-3.3338935 18.37804 4.6719546
-3.2850759 19.856037 4.4708972
-3.3919561 46.348682 4.7516255
-3.2365932 46.403522 4.7329493
-3.4314518 47.075096 4.6329646
-3.3421926 1.8343644 4.9308157
-3.3915193 14.780305 4.8563547
-3.3122697 15.030811 4.9767036
-3.3590524 15.370074 4.9560537
-3.3764513 15.918913 4.8937335
-3.3813627 16.189253 4.874321
-3.3814068 16.55044 4.8269625
-3.3275344 17.75976 4.9888506
-3.3120198 18.095984 4.9971972
-3.3088605 18.572193 4.8969846
-3.3978324 46.340466 4.8997235
-3.3404617 47.050533 4.8811131
-2.8771131 -3.0665541 1.0153301
-2.8608894 -2.5922427 1.0158697
-2.9894261 2.0817552 1.0378406
-2.93818 11.114363 1.034747
-2.8457949 20.140821 1.0339267
-3.0850668 47.292419 1.1891752
-2.8907478 -3.4024997 1.2344527
-2.8766513 -2.965621 1.2508327
-3.0560772 1.9970169 1.4541438
-2.9940038 2.0534906 1.3382802
-2.9658282 11.099903 1.3962212
-3.1620538 11.223265 1.427857
-2.8376381 19.995684 1.4737256
-2.8520238 20.108957 1.3960029
-3.0185721 47.296143 1.4508946
-3.0092697 2.0373747 1.7605927
-2.9795725 11.061983 1.7826887
-2.8838835 19.966702 1.8249222
-2.945595 20.207321 1.9058441
-3.0265393 47.255138 1.7481248
-3.0593421 1.9823207 2.2634058
-3.0059493 2.0320694 2.2573104
-2.9314866 11.038638 2.1948204
-2.9728563 11.20032 2.2423716
-3.0349391 19.952362 2.0953095
-2.9191294 20.151525 2.124958
-2.8481672 28.945236 2.3501036
-3.0113897 47.18644 2.1972361
-2.9657025 47.239483 2.2132492
-3.1116989 -74.282494 2.5435252
-2.9562798 1.9783419 2.6442966
-2.9832766 2.1288707 2.5639532
-2.9334028 11.037422 2.5992386
-2.879802 11.216808 2.6619651
-2.841825 20.113174 2.6447966
-2.851579 29.021914 2.5023062
-2.9504113 29.232525 2.4996409
-2.9943988 47.192036 2.7047114
-3.0105989 47.223492 2.6036742
-3.0310435 1.9688191 2.9917741
-3.0456417 2.2134359 2.9757991
-2.9364183 11.005398 2.9915624
-2.8790801 20.101961 3.0455601
-3.0243213 47.175755 3.0567806
-2.9904196 47.21418 2.9964063
-2.9833987 1.9531685 3.3985069
-3.0411916 2.1186881 3.2649894
-2.856895 10.54252 3.4084537
-2.9839227 10.9973 3.3612461
-2.8383577 19.985044 3.5621073
-2.9918458 20.260273 3.2336445
-2.9985776 47.160336 3.3531127
-3.0217195 1.9412227 3.7781394
-2.9989336 10.940662 3.7929041
-3.0005829 47.135456 3.7880137
-2.8609746 1.9251268 4.2513027
-2.9592414 10.915791 4.1243258
-3.1159897 19.941092 4.1930661
-3.0116723 47.099945 4.2182794
-2.9552252 1.8948243 4.5269585
-2.9089389 10.911138 4.5585346
-2.9134338 19.862997 4.4670987
-2.866008 20.982141 4.7747574
-2.9464784 46.3685 4.7731438
-2.9860413 47.072643 4.6489739
-2.9741256 1.8721159 4.9558516
-3.0324602 46.349529 4.9198914
-3.0321774 47.008984 4.8715744
-2.4942465 1.9152508 1.0935624
-2.6363072 2.0811639 1.0704298
-2.615499 11.096428 1.0456438
-2.4904368 20.498625 1.0078965
-2.4381211 28.738655 1.01371
-2.5717936 29.142683 1.0218701
-2.6674891 29.231951 1.0218855
-2.4716887 35.089378 1.1061721
-2.5044484 35.240952 1.1385646
-2.4947734 1.9322071 1.3763288
-2.6395674 2.061897 1.2873049
-2.6408949 11.082438 1.3874273
-2.5911415 20.138906 1.3999622
-2.4985027 20.508709 1.4300907
-2.4293029 28.70689 1.3711494
-2.6153016 29.137268 1.3837565
-2.6563325 29.222193 1.2879364
-2.4820359 35.068333 1.4150665
-2.5170612 35.256004 1.4746768
-2.6343911 47.292057 1.4581608
-2.511143 1.9001898 1.7632912
-2.6571999 2.0341778 1.8028603
-2.6273053 11.069261 1.8077204
-2.4804637 11.240081 1.7027704
-2.7709746 19.923851 1.8041396
-2.5105715 20.151697 1.7795584
-2.4800413 20.50371 1.8446395
-2.4393227 28.685909 1.7462949
-2.6126034 29.123081 1.7640723
-2.5603802 29.32601 1.7339907
-2.4197214 29.611874 1.9052763
-2.4827232 35.060913 1.7552888
-2.5145288 35.228092 1.7692276
-2.6198347 47.270309 1.7535361
-2.5307045 1.9192251 2.2355368
-2.6634881 2.0349376 2.2604232
-2.6055429 11.057433 2.201483
-2.5072677 20.148554 2.1857035
-2.4769657 20.490191 2.2519279
-2.4432983 28.634523 2.1618695
-2.7017264 29.047762 2.2309473
-2.425761 29.585411 2.2772548
-2.4415164 29.606403 2.1403382
-2.4818883 35.033028 2.0911288
-2.5152013 35.220417 2.0706601
-2.5652525 47.180481 2.199024
-2.5514462 47.223804 2.2067714
-2.5468524 1.9000114 2.5720501
-2.6505833 2.1070528 2.6058264
-2.4815693 2.524051 2.7389088
-2.63801 11.024839 2.5988348
-2.5678473 11.212715 2.6439831
-2.5208423 20.157349 2.6100895
-2.5269899 20.500784 2.5697634
-2.4163773 28.605679 2.4931035
-2.6754708 29.064571 2.6234326
-2.4111481 29.589733 2.611388
-2.4849825 35.097618 2.5561013
-2.5789528 47.182369 2.6981816
-2.5599997 47.218628 2.5691054
-2.5518785 1.9129676 2.8605666
-2.5990598 11.003702 2.9863825
-2.4479833 19.597681 2.8905339
-2.4610205 19.999935 3.1142664
-2.5962372 20.173157 2.9505033
-2.5094254 20.473019 2.9926484
-2.4351287 28.574356 2.9163113
-2.6140678 29.107935 2.9951258
-2.4937093 35.017647 2.9463902
-2.5730753 47.170052 3.0104277
-2.5852838 47.20697 2.965889
-2.5401125 1.8354882 3.3560543
-2.7563877 2.1471393 3.2559569
-2.7035594 10.957364 3.3856986
-2.6015983 19.978539 3.448092
-2.5034423 20.214226 3.4541278
-2.4732981 20.473087 3.3591423
-2.4308605 28.51836 3.3881361
-2.6162095 29.08131 3.4329464
-2.4421329 35.014336 3.3768213
-2.5768669 47.143074 3.3370688
-2.5424783 1.8149951 3.7656593
-2.7031109 2.1331038 3.7682936
-2.5339267 19.970522 3.6498692
-2.5855396 20.220968 3.6744201
-2.4927683 20.438971 3.6366162
-2.4529948 28.478367 3.949472
-2.7229564 28.845493 3.8119981
-2.4504509 34.981079 3.7114358
-2.5644488 47.118176 3.7787397
-2.4944406 1.769325 4.2407446
-2.4562814 22.956221 4.0283151
-2.4033971 28.472683 4.1871042
-2.6345036 29.002319 4.0782437
-2.4888322 34.903976 4.0106215
-2.5652359 47.0896 4.2088108
-2.5411706 1.8081279 4.528769
-2.6554677 10.921846 4.6544619
-2.4332268 20.138006 4.6698222
-2.5307779 45.952862 4.7060838
-2.5386841 46.139759 4.7442575
-2.5621669 46.595875 4.7530007
-2.5673637 47.010334 4.7370448
-2.5288353 1.7586629 4.9633961
-2.5699904 19.915312 4.8879609
-2.4402621 45.988129 4.8298545
-2.5105369 47.039757 4.8624883
-2.1849172 1.9193925 1.0643083
-2.3176274 11.235864 1.0900337
-2.1625156 19.952766 1.0587672
-2.2524266 20.146137 1.0067252
-2.301868 28.742563 1.0496973
-2.2138562 29.08848 1.0530934
-2.0124097 29.247967 1.023548
-2.3632164 35.200287 1.148438
-2.2720613 41.141747 1.0715302
-2.2021494 1.9054344 1.3295469
-2.3730624 10.900685 1.2895982
-2.3997149 11.232684 1.2048403
-2.1989326 19.976101 1.3824911
-2.2752244 20.124477 1.415826
-2.3239186 20.422663 1.2112536
-2.305778 28.718288 1.3985733
-2.2244394 29.04085 1.4174532
-2.0057428 29.238766 1.4110156
-2.2028401 35.115211 1.3780664
-2.2670918 41.102829 1.3691925
-2.167062 47.056358 1.5045123
-2.3299928 47.271576 1.4865401
-2.0667279 -72.901604 1.739103
-2.0943179 -72.583817 1.9433434
-2.1787572 1.8847941 1.7828921
-2.3996329 11.098719 1.7726804
-2.2101858 19.980238 1.7415946
-2.27107 20.096222 1.8436823
-2.3353128 28.704159 1.7624646
-2.1944327 29.075766 1.7654599
-2.1718261 29.482706 1.8416808
-2.270225 29.616747 1.8667338
-2.2131958 35.097458 1.7738298
-2.2460792 41.079185 1.7772552
-2.0482368 46.789936 1.6540713
-2.3738315 47.257881 1.7009397
-2.074029 -2.1514437 2.3865135
-2.2002625 1.8545352 2.2589517
-2.3501856 10.848879 2.1676614
-2.1971221 19.983534 2.2686265
-2.2684946 20.072201 2.2099597
-2.3411257 28.67902 2.1584632
-2.1715167 29.022133 2.2015316
-2.1837671 29.449272 2.1956863
-2.3022301 29.613211 2.1689024
-2.1783659 34.540394 2.1855621
-2.1937099 35.068924 2.1315498
-2.1153011 40.515812 2.3433166
-2.239013 41.065704 2.2015605
-2.0362535 41.463509 2.2414858
-2.0211813 46.690426 2.2055447
-2.2092428 46.996517 2.2076786
-2.3624253 47.225082 2.2148266
-2.2004914 1.8446376 2.5788741
-2.1582737 2.3116233 2.7003715
-2.2922261 2.6735239 2.7823567
-2.269696 3.1705647 2.5635335
-2.3513854 4.2669191 2.6760023
-2.1482453 4.62605 2.7261767
-2.1001732 5.8891382 2.7095964
-2.1357305 6.064147 2.5285523
-2.105361 6.5052729 2.7375774
-2.0242481 6.9107213 2.7989957
-2.1926944 7.6139574 2.7205577
-2.3983643 11.04011 2.6030238
-2.1872954 19.96603 2.7171888
-2.2930353 20.061985 2.5348043
-2.3509221 28.671598 2.5860102
-2.1196008 29.034487 2.6406119
-2.2067955 29.458319 2.6163054
-2.3181179 29.615707 2.4012299
-2.1539605 34.525959 2.5912714
-2.1066716 35.018974 2.543705
-2.1086841 40.516628 2.5449965
-2.2407849 41.035942 2.4811258
-2.0446525 46.684605 2.611954
-2.2714822 47.024094 2.6644368
-2.3578877 47.214405 2.6009824
-2.1602187 1.8377832 2.9474738
-2.0543613 2.1750441 2.8347163
-2.1052976 3.0379798 2.9317434
-2.2559211 3.5553451 2.823545
-2.1381929 3.9116542 2.9535582
-2.2900939 4.2367072 2.9450533
-2.0856359 5.8901157 2.9772253
-2.0099835 6.028626 3.0655882
-2.1571546 6.586802 2.9599648
-2.2169933 7.0019808 3.1229141
-2.1047041 7.4093556 3.0314109
-2.1428649 7.6702747 3.0056467
-2.2093763 8.2154808 3.0705621
-2.1245737 8.594593 2.930773
-2.1355941 8.9540176 3.0066967
-2.0505242 9.3220844 3.0343339
-2.0740004 9.7869062 3.0419898
-2.1355219 10.187427 3.0291388
-2.0428097 10.794536 3.032433
-2.2609851 10.990067 3.0119197
-2.2958744 11.386034 2.9934638
-2.2738049 11.903132 3.122344
-2.1581774 12.182625 3.0987351
-2.0962312 12.556503 3.0351217
-2.0439544 12.955815 3.0326209
-2.0406845 13.511939 3.1405084
-2.0485609 13.931809 2.9217823
-2.0165277 14.607677 2.8557494
-2.0055013 14.976492 2.847331
-2.2588868 19.962883 3.0141597
-2.2779894 20.041662 2.9577842
-2.3453243 28.633425 3.0054715
-2.0776548 28.999617 3.0157032
-2.2125096 29.454134 3.0013218
-2.1584976 34.50676 2.9910789
-2.1065531 34.982967 2.9872851
-2.1281314 40.467178 2.9621608
-2.034097 40.997684 2.9921689
-2.050513 46.619438 3.0501821
-2.2476397 46.978081 3.0981145
-2.1875246 1.7930721 3.3587818
-2.101481 8.6515522 3.2419338
-2.1175516 8.9417515 3.2568519
-2.1046836 9.4667301 3.23722
-2.1720939 9.9479361 3.275023
-2.167093 10.075644 3.2680328
-2.148247 10.468895 3.2938774
-2.2253151 10.983797 3.2927964
-2.1498284 11.535683 3.3292859
-2.0535154 11.722122 3.3207419
-2.1700344 12.533072 3.3529398
-2.0159595 13.750055 3.4057791
-2.0583205 14.19485 3.3871503
-2.1618166 14.52828 3.2627304
-2.0949593 15.003647 3.2971261
-2.0654387 15.363189 3.339922
-2.0266898 15.935428 3.2940819
-2.0273938 16.361061 3.4105287
-2.0060792 16.87471 3.3983729
-2.0720263 17.274107 3.4043024
-2.0339777 17.67454 3.4773378
-2.0297112 18.047417 3.4370697
-2.0416963 18.665688 3.4182365
-2.0142891 19.097948 3.5233309
-2.2449484 19.943359 3.4239492
-2.2312405 20.059917 3.4260004
-2.0187018 21.185318 3.5460572
-2.3225148 28.612146 3.449028
-2.082454 28.98941 3.4172719
-2.2145343 29.467285 3.416882
-2.174808 34.487926 3.3829885
-2.1062469 34.941208 3.4027233
-2.1393361 40.4533 3.3807392
-2.0301266 40.951717 3.4464722
-2.0575264 46.575443 3.400676
-2.3230362 47.068062 3.3844213
-2.2197933 1.7523183 3.8469441
-2.0697227 18.323214 3.6068599
-2.3135152 19.962948 3.7155523
-2.3044662 20.034552 3.7229586
-2.1239035 20.741865 3.6165018
-2.0351019 21.583273 3.6500695
-2.0145948 22.563057 3.6569781
-2.0154054 22.890615 3.7088616
-2.0532646 24.144115 3.7245162
-2.3561325 28.561205 3.7607276
-2.0860038 28.957296 3.7799482
-2.1685431 29.37808 3.8055153
-2.1765349 34.396973 3.7686608
-2.1426415 34.496822 3.7583725
-2.1421468 34.932941 3.7884521
-2.0830505 40.391102 3.8979962
-2.1067424 40.450226 3.7033279
-2.0519588 40.965305 3.7596223
-2.0545313 46.567154 3.7490726
-2.3272831 47.055317 3.7608929
-2.2092359 1.7333148 4.1812553
-2.3674371 28.18511 4.3587408
-2.3288224 28.53862 4.0594368
-2.1790416 28.95923 4.1044283
-2.1727023 29.418228 4.0505886
-2.2188389 34.388279 4.2432361
-2.1414635 34.497635 4.2261753
-2.085954 34.905251 4.2283306
-2.1616442 40.388958 4.1183553
-2.1226275 40.450962 4.1508908
-2.0498726 40.923908 4.1432848
-2.0228684 46.521275 4.0913854
-2.3213429 47.016445 4.1802197
-2.2149894 1.7385066 4.5254817
-2.2191274 19.858328 4.6554728
-2.2408071 20.216856 4.6124392
-2.3441448 34.385719 4.6842031
-2.1954572 34.407959 4.415287
-2.0310864 34.904484 4.5034633
-2.1274941 40.374367 4.566895
-2.0476038 40.457733 4.4439859
-2.0555322 40.92157 4.588275
-2.1851025 45.986134 4.6954684
-2.1859877 46.070415 4.7190189
-2.0686533 46.490162 4.566021
-2.3546786 47.021492 4.5867653
-2.2173548 19.857519 4.9392986
-2.105927 40.359638 4.9375281
-2.0136414 40.906208 4.8401256
-2.1383364 45.996311 4.8364825
-1.8132498 2.0152819 1.141066
-1.9831914 29.05826 1.0540442
-1.9853513 29.247816 1.0349019
-1.9176248 35.102806 1.1294131
-1.9106767 35.235233 1.0627961
-1.9147261 41.143089 1.0570334
-1.8926513 1.9392982 1.3435867
-1.7371645 2.0552585 1.3574247
-1.980523 29.071016 1.3889592
-1.9846872 29.233759 1.3057888
-1.9179132 35.046947 1.429962
-1.9131697 35.237381 1.4253471
-1.8920869 41.113705 1.348964
-1.8078901 41.289124 1.5168533
-1.9029157 46.767567 1.4843507
-1.7117738 47.028332 1.5154029
-1.8910723 1.9077574 1.7472966
-1.9822898 29.035078 1.7720991
-1.9881268 29.203669 1.8519025
-1.9243536 35.057919 1.780624
-1.9241041 35.229404 1.7455105
-1.8857229 41.082085 1.7635952
-1.9603066 41.488121 1.711156
-1.7231381 47.078362 1.6353955
-1.7911382 -2.2634106 2.2441292
-1.8067977 -0.86647952 2.158895
-1.6223412 -0.43195328 2.1603663
-1.6651652 -0.27962473 2.1811168
-1.6503217 0.31216782 2.1398194
-1.8108011 1.8680745 2.2435012
-1.6343156 2.0834258 2.3596687
-1.9704076 29.055197 2.1733983
-1.9968258 29.205866 2.2701447
-1.9279877 35.036362 2.1534691
-1.9384843 35.217148 2.1060693
-1.9982811 40.633095 2.3348758
-1.9124556 41.063881 2.2041221
-1.9649402 41.453262 2.222821
-1.9135019 46.713249 2.2114472
-1.744994 47.045502 2.2196355
-1.6179901 47.220676 2.2445524
-1.745438 -0.035827968 2.4795728
-1.7836119 1.8791398 2.5680051
-1.7640545 2.1817367 2.6500962
-1.7150412 18.723991 2.747817
-1.9674834 29.058403 2.5664914
-1.9269638 35.011234 2.5526986
-1.9329537 35.20401 2.4113045
-1.970899 40.5429 2.6033545
-1.8732064 41.011452 2.5825584
-1.9590384 41.451027 2.4007125
-1.9178801 46.680542 2.595516
-1.7399366 47.047413 2.6497734
-1.6102284 47.206936 2.5996335
-1.8190696 1.898025 3.0138831
-1.7525395 2.2045345 2.9491961
-1.9902226 6.2031064 3.1120062
-1.9842783 7.5247951 3.1668775
-1.9744354 8.0078077 3.1721125
-1.9770387 9.00879 3.1409948
-1.9711078 9.4146528 3.1452472
-1.9977823 9.9651423 2.9180701
-1.9130715 10.103645 3.0354037
-1.8471211 11.019527 3.0605605
-1.944108 11.447501 2.9942074
-1.9154524 11.824443 3.1351376
-1.8826926 12.198882 3.0535145
-1.9647003 12.548393 2.9204645
-1.9490517 13.019524 3.1221302
-1.88151 13.544937 3.128511
-1.8817929 13.769169 3.1674867
-1.9442849 14.279387 3.0980563
-1.7820435 14.640293 2.9665818
-1.8624063 14.939394 3.0997105
-1.7727512 16.149191 3.0656579
-1.987568 29.047523 2.9735959
-1.9353119 35.000626 2.9713082
-1.9826634 40.518127 2.9187291
-1.8686442 40.972786 2.9309862
-1.9356787 46.627338 2.9937031
-1.7740719 47.007198 3.0664315
-1.6236601 47.254929 2.990989
-1.7730999 1.9119999 3.3518767
-1.7947408 2.1965818 3.3536494
-1.9298186 7.5444818 3.2551169
-1.9862216 7.8008342 3.2647202
-1.9549575 8.1582308 3.3983216
-1.9983338 8.5215006 3.3460453
-1.9382538 9.1253986 3.3168783
-1.914274 9.4220333 3.4999428
-1.8501396 9.8499365 3.4045482
-1.8950205 10.176323 3.3214095
-1.8747139 10.599117 3.2961736
-1.8937832 11.071458 3.4659081
-1.8767984 11.443773 3.3226845
-1.8292502 11.65307 3.4378848
-1.8307922 12.254502 3.3833251
-1.8735749 12.482203 3.3318534
-1.9514509 12.873547 3.2632954
-1.8355495 13.342429 3.382257
-1.8106314 13.722745 3.4138563
-1.8547502 14.155173 3.3082438
-1.8416082 14.480472 3.281894
-1.7622375 14.98501 3.3706625
-1.8420559 15.369571 3.3672836
-1.6914222 15.764457 3.4531255
-1.729781 16.334282 3.4053059
-1.7764684 16.555775 3.4098563
-1.7526429 17.040462 3.4098203
-1.6691961 17.372477 3.487227
-1.8369639 17.806513 3.470937
-1.7985392 18.246841 3.4685326
-1.7938682 18.918451 3.5492287
-1.7688067 19.291105 3.5514314
-1.7943578 19.839388 3.5003591
-1.8890122 20.040224 3.5308218
-1.7030056 20.686472 3.5548198
-1.7861664 21.125113 3.4976981
-1.9275143 21.473349 3.5783563
-1.9952725 29.017963 3.4096682
-1.9425299 34.972347 3.3624935
-1.9866863 40.492245 3.3702831
-1.8832328 40.964176 3.3656094
-1.9149007 46.593674 3.406759
-1.7653947 47.010933 3.4104369
-1.8114765 1.7538145 3.8475032
-1.7553515 2.2023013 3.6448972
-1.7668263 10.977744 3.9273491
-1.8040119 14.085651 3.6597526
-1.7016203 14.631667 3.6419809
-1.6264508 14.985676 3.7533801
-1.6205634 15.35568 3.7417514
-1.6145395 15.941727 3.7043827
-1.6103277 16.116051 3.7426755
-1.6109316 16.618996 3.6524158
-1.6182055 17.002192 3.8569815
-1.744781 18.282869 3.6018088
-1.731649 19.707062 3.6682155
-1.7863107 20.120207 3.614867
-1.7524382 20.574917 3.6122632
-1.755615 21.03091 3.614002
-1.8157539 21.460873 3.6685653
-1.8323151 21.824564 3.6632147
-1.6849432 22.29434 3.6647809
-1.804418 22.747768 3.6996763
-1.9515669 23.069647 3.7115507
-1.8199655 23.46834 3.7241008
-1.8407055 23.78854 3.7145553
-1.8274583 24.17169 3.7698815
-1.8247917 24.66135 3.8117459
-1.8120426 24.947502 3.8246009
-1.6953188 25.846655 3.8981321
-1.6510522 26.198914 3.9014232
-1.6767585 26.568306 3.901145
-1.7443895 26.928982 3.936384
-1.7578186 27.351028 3.9376662
-1.7087235 27.817362 3.9512987
-1.8737676 28.192009 3.9802706
-1.9962867 28.977722 3.689471
-1.9435334 34.969692 3.7641079
-1.9871355 40.45248 3.8072171
-1.8965657 40.951019 3.7682903
-1.9516686 46.56229 3.7989581
-1.7422662 47.031036 3.7808266
-1.8093609 1.7335696 4.2048073
-1.8155128 28.293566 4.0677705
-1.8892393 28.985804 4.0709891
-1.7199037 29.886507 4.1700001
-1.7442312 30.165956 4.0655656
-1.6782242 30.704781 4.1619492
-1.6140682 31.204275 4.1229296
-1.6284033 31.71207 4.2464395
-1.7324115 32.32835 4.277071
-1.8458389 33.025955 4.2177153
-1.7174976 33.419918 4.1936893
-1.7261244 34.249622 4.280694
-1.7795032 34.63615 4.3995051
-1.8657418 34.915504 4.2604375
-1.6196982 35.75309 4.3693657
-1.9979552 40.389832 4.2975893
-1.9908379 40.408298 4.1012926
-1.9058897 40.943901 4.1560774
-1.9292643 46.555931 4.1796975
-1.7468067 46.971443 4.1748371
-1.8009529 1.7271233 4.560473
-1.6736977 36.551876 4.4337654
-1.6728219 37.13744 4.5293407
-1.6918939 37.338959 4.474525
-1.6437751 37.644096 4.4230156
-1.6695039 38.742001 4.5180349
-1.6941425 39.974285 4.5587544
-1.8757582 40.624634 4.6658797
-1.8429667 40.909698 4.6317358
-1.777602 45.995228 4.7576275
-1.7610894 46.033661 4.6556358
-1.9449891 46.539925 4.6351099
-1.7083213 46.979095 4.6625776
-1.9918488 40.356407 4.8319941
-1.68353 41.737732 4.8124533
-1.6896274 42.242943 4.8118315
-1.7921835 45.994205 4.8209581
-1.7432871 46.930992 4.9175577
-1.3369254 47.13245 1.4960244
-1.5155536 47.238777 1.5153476
-1.3712983 47.113724 1.6380529
-1.5402894 47.226032 1.6782632
-1.3566657 -72.445702 2.3816411
-1.3490218 -2.3096161 2.1957862
-1.4033222 -1.5432264 2.1376688
-1.3666179 -0.87233752 2.1549494
-1.2419714 -0.40482935 2.1585429
-1.3488433 -0.15572806 2.2625992
-1.4382195 0.32479659 2.1364088
-1.4121214 1.8562999 2.2682872
-1.2424467 2.0624864 2.3778603
-1.3131455 26.13306 2.2856576
-1.4475403 47.151974 2.2166381
-1.4067495 47.217041 2.2399704
-1.5155983 -72.587379 2.705241
-1.4785664 -72.21035 2.4685454
-1.3799551 -0.15054671 2.4420803
-1.4510161 0.80185503 2.516715
-1.4016345 1.8481218 2.5596061
-1.4165742 2.1949379 2.6474962
-1.4458317 47.166012 2.62502
-1.3787651 47.212727 2.5637722
-1.3953053 1.9369086 2.9319324
-1.4282169 2.1362188 3.0765791
-1.4565896 47.137745 3.0030582
-1.3125956 47.209129 2.8112347
-1.3518372 1.8861557 3.3819785
-1.391368 2.1814871 3.3212137
-1.5922064 16.33499 3.4983783
-1.5852245 17.024801 3.5026188
-1.5899831 17.740765 3.5300775
-1.5708393 18.250002 3.468133
-1.4272492 18.985643 3.5333066
-1.4795181 19.296709 3.5397794
-1.4595622 19.799282 3.5026009
-1.4927807 20.164392 3.5668552
-1.4964185 20.541273 3.5363052
-1.4029889 21.086615 3.5486991
-1.4420215 47.111259 3.3287127
-1.408221 1.7774394 3.8546751
-1.4087274 2.1044126 3.6530385
-1.4070983 10.971396 3.9141817
-1.5812978 16.535612 3.6524169
-1.5820484 17.044672 3.8260779
-1.5878446 17.453926 3.7615197
-1.5747606 17.842321 3.7345722
-1.566676 18.186453 3.7176218
-1.5312552 18.450132 3.7243419
-1.3800875 19.052284 3.7952693
-1.3753394 19.466812 3.8333113
-1.3765025 19.830063 3.7781425
-1.3808084 20.233686 3.7653766
-1.3672309 20.614092 3.7587843
-1.3840108 21.006336 3.7467415
-1.3954517 21.384333 3.7495296
-1.3321217 21.765671 3.8186941
-1.3676186 22.20664 3.7833469
-1.3090802 22.610859 3.8499708
-1.4253075 22.996807 3.7561822
-1.3807142 23.414217 3.7655332
-1.3061624 23.800669 3.8342028
-1.3881224 24.193293 3.8091214
-1.4366634 24.552357 3.8139036
-1.2526393 24.886883 3.9462559
-1.310251 25.32712 3.9062066
-1.3419271 25.749758 3.8713751
-1.3541069 26.129038 3.8956211
-1.5021449 26.577959 3.9132388
-1.3765434 26.976284 3.9415789
-1.510852 27.208391 3.9179564
-1.4132204 27.831615 3.9694755
-1.447351 47.101776 3.7711134
-1.4178177 1.7184986 4.2098813
-1.3659115 19.423975 4.0357132
-1.4008605 19.68663 4.0030866
-1.3629166 20.147568 4.0049229
-1.3244934 20.982992 4.0636091
-1.3312477 21.315197 4.0552673
-1.3381809 21.835545 4.0692315
-1.3293142 22.089384 4.0785012
-1.3022796 22.615543 4.1088085
-1.2816402 22.977827 4.2036881
-1.2821431 23.340591 4.1043978
-1.2726964 23.800283 4.1707511
-1.2550592 24.246185 4.1509166
-1.2478353 24.743633 4.107513
-1.2450888 25.062294 4.1707673
-1.2312496 25.432394 4.140244
-1.2209092 25.839109 4.110208
-1.210605 26.331957 4.0781627
-1.2093269 26.525923 4.0674109
-1.2052743 26.807646 4.052443
-1.2000047 27.227013 4.0330777
-1.4463323 28.328049 4.0676451
-1.2471505 28.753473 4.0096402
-1.3862784 29.021765 4.0431862
-1.3931067 29.402399 4.0488997
-1.394027 29.899569 4.1151686
-1.4873925 30.316483 4.0905123
-1.4243865 30.673449 4.1240463
-1.4710199 31.151138 4.116889
-1.525849 31.482277 4.1483617
-1.4342574 31.806669 4.2109303
-1.4111918 32.199448 4.2264209
-1.4864291 32.578041 4.210248
-1.4055359 33.036671 4.2204137
-1.3784332 33.385437 4.2210226
-1.3098481 33.791809 4.2737994
-1.3456659 34.292347 4.2871513
-1.3650057 34.667603 4.3952293
-1.4450707 34.9039 4.3221951
-1.331405 35.677921 4.3631234
-1.4778767 36.037182 4.3970213
-1.3781753 37.492863 4.2148943
-1.3513137 39.007156 4.3915873
-1.4512452 47.069584 4.198276
-1.37722 1.7186556 4.5736175
-1.4777155 36.182312 4.4248552
-1.2481444 36.628036 4.4353604
-1.4297695 37.015369 4.4597096
-1.3753564 37.340122 4.4893904
-1.4321122 37.802071 4.4687853
-1.3936014 38.267864 4.4959488
-1.4023079 38.616348 4.575345
-1.3853633 39.400688 4.6193953
-1.4298831 39.872044 4.6105838
-1.3989913 40.157898 4.6871066
-1.4266518 40.666668 4.6621957
-1.3344046 40.994465 4.6998639
-1.401292 41.378227 4.7366719
-1.3748949 41.863731 4.74159
-1.3757819 42.24551 4.7250743
-1.2156188 42.760376 4.6505108
-1.3738065 43.068817 4.7507825
-1.3101828 44.098503 4.7180076
-1.4407359 45.958515 4.7500772
-1.4575284 46.01601 4.6747851
-1.4317334 47.044289 4.6822977
-1.5232363 41.855034 4.8274279
-1.4624959 42.705605 4.8226609
-1.2891966 43.014206 4.9083114
-1.2882682 43.379593 4.8781037
-1.3584177 43.801327 4.8671556
-1.4226221 44.029327 4.8661795
-1.4397651 44.516098 4.9366684
-1.4504695 45.99572 4.8151979
-1.4193954 46.997051 4.9152608
-0.98703235 47.124367 1.5092331
-0.88700402 47.233154 1.5446372
-1.0388054 47.084702 1.627017
-0.88258308 -2.2479918 2.2360976
-0.964903 -1.5395744 2.1350272
-1.085032 -0.8743425 2.1531014
-0.91339099 -0.52924997 2.2049236
-0.92586797 -0.086519971 2.2706778
-1.050401 0.29923826 2.1768363
-1.0205469 1.5455483 2.3004959
-1.0240155 1.8504757 2.2671087
-0.84132659 2.1416464 2.3706479
-0.97022104 47.141338 2.2039223
-1.0288942 47.207645 2.2398067
-1.0407763 -0.17693768 2.4424858
-1.0005283 0.75318968 2.5177729
-1.0448672 1.870118 2.5805705
-0.99140227 2.1718616 2.6479771
-1.036932 47.171768 2.5902019
-0.98999447 47.226917 2.5256903
-1.0669224 1.9208044 2.9188707
-0.99790591 2.1290202 3.0313187
-1.0102149 47.149628 3.0128012
-1.1098986 47.203621 2.8101068
-1.0080293 1.8895352 3.3719499
-1.0447755 2.091717 3.3205822
-1.0081972 47.126762 3.3551781
-1.0294327 1.7627861 3.836607
-1.0431513 2.0582252 3.6553483
-1.0483094 10.961874 3.8992295
-1.0166773 27.809347 3.9590938
-1.0597496 28.049776 3.9707053
-1.1919276 28.445374 3.9983559
